557442.382324 7133671.110352 304.449463
557448.946777 7133669.969727 304.035797
557434.072754 7133674.073486 303.358765
557427.487793 7133671.063477 299.468750
557440.647461 7133677.334961 307.337341
557432.626465 7133681.247070 304.437622
557448.316895 7133674.540283 307.070587
557447.602539 7133680.364014 310.630829
557453.984863 7133678.111816 309.641724
557440.055664 7133685.753906 309.221130
557447.649414 7133686.532227 313.193115
557453.636230 7133683.688477 313.302795
557443.479492 7133695.097656 313.094513
557434.807129 7133692.888184 308.111053
557452.661621 7133690.073730 316.337341
557452.821777 7133697.455322 318.386505
557459.228516 7133687.165527 315.901489
557459.578613 7133681.769775 312.473175
557460.146973 7133692.921631 319.494934
557464.818848 7133689.623779 318.007507
557459.253418 7133698.465576 321.783356
557455.310547 7133705.257324 321.507965
557464.233398 7133696.551025 322.255341
557464.416504 7133701.588135 324.856720
557468.125000 7133693.418457 320.839783
557469.184570 7133697.526123 323.304047
557468.765625 7133689.503418 320.633240
557467.308105 7133687.052734 318.950989
557472.355469 7133690.129639 323.817993
557470.689453 7133685.906738 321.558289
557472.618652 7133693.745605 324.712341
557477.070313 7133692.481201 328.086700
557471.077637 7133695.421631 323.594574
557473.562500 7133696.390869 325.921722
557477.567383 7133697.773438 329.693726
557482.522949 7133695.090820 332.829376
557472.708984 7133700.750244 326.093384
557477.807617 7133701.752197 330.487061
557475.793945 7133704.505371 329.049194
557481.938477 7133700.785156 333.956696
557479.900879 7133703.290039 332.780090
557478.277832 7133703.804199 331.245056
557481.667969 7133704.720947 334.623749
557485.555176 7133705.128906 337.708191
557479.041016 7133705.735840 332.186859
557481.541504 7133708.673096 334.960907
557475.932129 7133709.475342 331.471130
557469.961914 7133705.906982 328.397736
557469.015137 7133712.523682 330.005737
557462.519531 7133709.233887 326.012115
557462.395508 7133716.858154 327.746704
557455.278809 7133714.390381 323.550598
557469.473145 7133719.474854 331.972473
557464.057129 7133724.053955 330.629639
557475.233398 7133715.711670 333.797607
557476.487793 7133721.995117 336.101501
557481.750977 7133718.350830 337.549438
557471.479004 7133726.348389 334.967621
557478.330566 7133728.440430 338.991608
557474.224121 7133733.113525 338.516602
557483.437012 7133723.908936 340.178986
557484.041016 7133730.411865 342.295929
557486.066895 7133720.587891 340.760132
557486.578613 7133717.327393 340.756531
557488.885742 7133722.923096 342.868561
557488.419922 7133726.544678 343.184998
557489.640625 7133719.968262 342.911896
557492.883789 7133722.181152 344.063293
557493.349609 7133719.122803 343.916107
557493.111328 7133726.202881 344.521332
557496.156250 7133724.442139 344.938782
557496.714355 7133721.645996 344.797699
557497.905273 7133728.291504 345.879272
557495.340820 7133731.847656 345.746887
557499.979004 7133725.130127 345.950134
557502.292969 7133730.346680 347.296448
557499.166016 7133733.149902 346.911804
557505.127441 7133725.554688 347.323120
557500.794922 7133721.543213 345.756500
557507.306152 7133732.795410 348.827759
557502.252930 7133737.366455 348.101410
557509.857910 7133727.184570 348.778351
557509.014648 7133721.873535 347.807404
557512.959961 7133731.256104 349.994720
557509.894043 7133737.817139 348.791534
557513.170898 7133724.712646 349.260040
557517.518066 7133726.733643 350.614838
557512.799316 7133720.208984 348.561157
557510.175781 7133718.379883 347.748047
557515.645996 7133722.358154 349.544464
557515.780273 7133719.250244 349.192383
557519.019043 7133721.655518 350.324982
557523.143066 7133725.335205 351.828644
557518.432129 7133716.788574 349.613251
557513.268066 7133716.064941 348.251404
557522.708008 7133719.970947 351.061951
557522.035645 7133714.871582 350.363770
557527.461914 7133722.054443 352.526398
557526.761230 7133725.956787 352.203918
557525.462891 7133717.309326 351.412964
557528.969727 7133717.262939 352.293823
557526.673340 7133710.601807 350.334473
557532.756836 7133720.101074 353.516235
557530.832031 7133725.874756 352.167053
557532.721680 7133714.772461 353.046631
557538.707520 7133717.062744 354.842438
557537.946289 7133712.405029 353.879120
557537.773438 7133721.368408 352.210785
557542.716797 7133718.224854 353.324066
557542.685059 7133720.928467 347.750916
557544.414063 7133714.000000 355.652252
557545.527832 7133716.668945 352.215637
557539.053223 7133706.073486 351.226288
557533.026367 7133709.338135 351.578491
557546.359375 7133712.716309 351.568970
557546.840820 7133708.948975 345.766327
557549.404785 7133713.727539 347.702271
557539.035645 7133701.257813 341.588501
557531.585449 7133693.075928 343.376770
557547.540527 7133704.685547 337.054565
557553.132813 7133711.771729 340.832275
557540.075195 7133698.233154 334.270599
557533.906738 7133694.810547 335.977875
557545.442871 7133698.993652 329.320831
557552.375488 7133704.820557 331.759003
557536.537598 7133691.363525 326.611176
557541.912598 7133692.532715 321.107880
557551.895508 7133703.249756 327.577637
557537.903320 7133687.986328 319.053802
557533.638672 7133684.254395 317.931488
557534.859863 7133682.872314 312.761810
557532.683594 7133692.431152 314.974579
557528.508301 7133687.089600 333.836914
557523.533691 7133678.913818 331.420929
557524.818848 7133681.448730 338.179718
557524.721680 7133689.333252 342.690765
557517.810059 7133680.121094 337.809753
557520.328125 7133685.927979 340.536896
557511.024414 7133677.589844 335.457031
557512.174805 7133689.604980 339.819244
557510.447754 7133668.669678 332.295135
557502.390625 7133673.995605 332.219757
557491.536621 7133675.943604 330.151642
557486.360840 7133668.372803 325.723755
557495.987793 7133683.125000 333.755493
557488.812988 7133685.586914 332.683838
557503.007324 7133686.471680 336.517822
557493.945313 7133693.212891 336.703400
557501.623535 7133700.212402 340.893188
557487.281250 7133692.344727 334.458435
557482.854492 7133689.119141 331.218781
557487.411621 7133698.325195 336.513702
557492.495117 7133703.089844 339.684845
557489.433594 7133710.245850 341.232513
557496.472168 7133709.795166 342.873901
557484.905273 7133709.803955 338.391510
557485.911133 7133713.105713 339.819519
557483.244629 7133711.949463 336.931183
557480.341309 7133713.257324 334.509094
557483.755371 7133714.886963 337.851227
557488.819824 7133714.805420 342.134979
557490.291504 7133717.431641 342.908203
557493.368164 7133715.311035 343.576538
557497.368652 7133718.579346 344.712341
557499.052734 7133715.334961 344.801666
557501.340332 7133718.456055 345.620239
557504.443848 7133720.532715 346.542511
557503.643066 7133715.950684 345.935120
557503.096191 7133710.573242 344.644714
557503.929199 7133718.244385 346.232880
557506.896484 7133717.846680 346.920776
557508.959473 7133713.095459 346.815094
557509.629395 7133716.427246 347.452362
557517.935059 7133708.555664 347.546082
557510.388184 7133703.312500 343.998199
557525.229980 7133698.947998 346.048431
557530.873535 7133703.036621 348.801636
557518.911133 7133695.112793 343.307434
557477.060059 7133684.733887 326.005615
557483.305664 7133683.950195 329.740234
557471.022461 7133679.501221 320.103912
557467.547363 7133683.618652 318.510162
557476.562988 7133676.248291 323.380829
557481.417969 7133679.037354 327.169342
557472.455078 7133672.645752 319.357544
557476.163574 7133669.058350 321.076141
557467.153320 7133672.685791 315.393890
557470.883789 7133665.778320 316.353851
557464.654785 7133679.824219 315.328918
557462.036133 7133674.931885 312.057800
557464.041992 7133685.121826 315.828735
557461.269531 7133678.631592 312.385345
557458.513184 7133676.617432 309.506561
557454.313477 7133672.424805 306.038452
557458.679688 7133671.949219 308.745789
557451.958008 7133666.858154 302.503265
557456.582520 7133666.339600 305.699921
557453.517090 7133663.858887 302.674927
557454.771973 7133660.019775 302.619568
557459.867676 7133658.946289 306.203247
557455.545898 7133652.970459 301.481567
557462.332520 7133667.810303 310.483795
557466.105469 7133660.690186 311.416168
557466.595215 7133666.835205 313.395996
557471.621094 7133657.244141 314.588837
557476.629883 7133661.294922 318.923340
557468.184570 7133654.015625 311.153992
557471.953125 7133649.189697 312.528351
557464.235840 7133653.391357 307.945953
557467.490723 7133649.364502 309.336151
557459.942871 7133650.060547 304.026672
557464.315430 7133646.797119 306.347382
557454.946777 7133644.625000 300.713196
557460.378418 7133643.379395 303.514557
557450.228027 7133648.583008 298.167603
557452.026855 7133655.511719 299.544983
557461.092285 7133638.347656 303.967834
557464.636230 7133640.940186 305.732727
557467.918945 7133637.515381 306.877563
557468.898926 7133643.321777 308.809052
557471.745117 7133637.781738 308.655487
557472.972656 7133632.979492 307.654572
557474.231445 7133642.382080 311.338531
557476.258789 7133637.070801 310.452911
557476.860840 7133646.355713 313.912903
557477.311523 7133652.775635 316.315521
557479.147949 7133641.506104 313.275085
557481.369141 7133646.628174 316.056030
557483.581055 7133652.509766 319.085388
557487.094727 7133656.694092 322.056702
557483.002930 7133657.058350 320.376831
557480.333008 7133657.051025 319.172211
557482.663574 7133661.370850 321.728424
557489.533203 7133661.458984 324.651947
557480.311523 7133666.529785 322.421295
557480.865234 7133672.500732 324.720581
557485.034668 7133675.378418 327.582520
557485.970703 7133680.215576 329.651642
557524.106934 7133685.160400 308.971710
557508.182129 7133688.475098 307.846252
557520.168945 7133694.615723 313.400177
557510.386230 7133698.270996 312.171112
557527.628418 7133702.035889 318.208710
557516.866699 7133705.058105 316.404541
557538.985352 7133700.696533 320.787628
557532.223633 7133710.026123 322.425354
557542.986816 7133709.504395 325.380829
557553.230469 7133712.995850 329.450714
557535.093750 7133717.847656 325.928070
557525.539063 7133719.942139 324.041138
557544.358887 7133718.178711 328.531738
557537.303223 7133725.035645 328.093689
557551.866699 7133719.770996 330.813690
557557.590820 7133716.479248 331.502228
557545.401855 7133724.101563 329.882019
557553.002441 7133723.878906 332.489258
557542.824707 7133729.044678 329.875519
557537.192383 7133730.555176 328.841858
557540.197754 7133732.244629 329.519440
557529.413086 7133730.441162 327.030762
557531.074707 7133734.822998 328.043640
557527.766113 7133725.658203 325.963715
557519.802734 7133732.171143 325.066406
557518.146973 7133728.041504 324.076782
557521.908691 7133737.105713 326.226135
557511.547852 7133738.115479 323.930450
557527.401367 7133740.010254 327.804443
557532.462402 7133738.073730 328.504822
557521.432617 7133744.123535 326.988342
557527.633301 7133744.270020 327.706299
557513.042969 7133742.662598 324.964020
557513.905273 7133747.368896 325.823975
557503.658691 7133743.549561 322.867340
557502.051758 7133739.905762 321.980438
557505.470703 7133747.721191 323.908081
557496.982422 7133748.880859 322.185455
557507.589844 7133752.072998 325.012634
557514.968750 7133750.575195 326.278992
557498.598633 7133752.893066 323.122528
557500.394531 7133757.210938 324.178680
557491.530762 7133753.584229 322.580414
557490.079590 7133749.808838 321.678253
557493.106934 7133757.450684 323.490417
557487.618652 7133757.649658 323.290527
557494.895996 7133761.210205 324.163513
557499.629883 7133761.000000 324.427246
557489.743652 7133761.547852 323.948883
557493.064453 7133765.433105 323.758392
557485.208984 7133761.476318 323.791016
557483.103516 7133757.476318 323.101837
557488.253418 7133765.680176 323.559998
557483.535156 7133765.595215 323.407959
557492.117188 7133769.947510 323.252563
557487.013184 7133770.129883 323.038391
557497.179199 7133769.409668 323.490112
557498.358398 7133764.837158 324.024384
557496.116699 7133774.037842 322.957306
557490.985840 7133774.578857 322.727539
557500.997070 7133773.165527 323.419281
557498.891602 7133777.221924 322.925201
557502.904785 7133768.394043 323.894409
557506.356445 7133770.808838 324.067413
557504.676758 7133764.013672 324.440186
557508.539063 7133766.816650 324.437408
557511.446289 7133762.792725 325.000671
557512.950684 7133766.654297 326.220032
557502.595703 7133777.444092 324.789337
557504.556152 7133771.901367 327.963928
557497.196777 7133781.378662 322.433014
557494.707031 7133778.614746 322.445740
557493.638184 7133788.367920 321.640839
557492.297852 7133783.652588 321.822479
557496.051758 7133782.596924 325.412933
557491.900391 7133788.130127 324.129791
557499.662109 7133777.039063 327.307312
557494.504883 7133778.776367 329.055603
557499.033203 7133774.100342 329.677155
557491.599121 7133784.280273 327.101288
557490.564941 7133781.443604 329.969025
557489.872559 7133787.240723 326.278961
557489.621582 7133786.006104 327.605377
557489.020508 7133790.241455 325.065338
557489.574707 7133793.313721 322.239655
557488.232910 7133787.288574 330.299133
557486.994141 7133789.143555 327.307068
557489.210449 7133784.509766 330.794617
557487.588867 7133784.854248 333.088318
557488.176758 7133783.480957 335.163269
557485.358887 7133785.390625 329.597839
557485.650879 7133782.300049 333.740723
557484.455566 7133788.278809 324.833527
557481.083008 7133783.484131 325.706909
557487.244141 7133792.302979 323.941406
557485.703613 7133792.204834 322.267670
557487.274902 7133795.187500 321.503937
557488.419922 7133796.562500 320.414215
557486.541016 7133793.738525 320.603424
557483.787109 7133787.587646 321.233765
557487.078613 7133789.706299 320.942230
557489.057617 7133792.335205 320.755737
557486.718750 7133784.438965 321.529755
557482.149902 7133782.303955 321.518585
557489.928223 7133787.960938 321.290283
557489.062988 7133779.354736 322.155792
557483.466797 7133778.914551 321.990234
557485.353027 7133774.636230 322.520813
557479.777344 7133774.452393 322.320038
557481.705566 7133770.107178 322.863739
557478.671387 7133778.412354 321.819519
557474.759766 7133774.250244 322.114655
557479.365234 7133782.236084 321.524475
557475.436523 7133778.160889 321.867340
557480.804688 7133784.898682 323.306763
557477.688965 7133781.252930 323.476898
557477.521973 7133778.966309 326.000824
557474.725098 7133777.516113 323.830170
557481.610840 7133780.759766 329.654236
557477.862793 7133775.941895 329.979462
557482.026367 7133778.083008 333.433258
557485.437012 7133779.891602 336.201782
557478.637207 7133773.447510 333.872040
557473.996094 7133771.148926 330.076477
557482.738281 7133776.437256 336.346130
557480.051758 7133773.255615 336.309509
557485.919922 7133778.622314 338.398651
557487.230957 7133780.336914 338.272827
557483.843750 7133775.588867 339.062775
557487.392578 7133778.082275 341.173920
557480.668457 7133772.652100 339.352722
557483.226074 7133773.125488 342.761353
557477.051270 7133770.563721 337.538361
557479.311523 7133770.458740 342.317810
557477.643066 7133771.417480 335.124390
557476.683105 7133770.459473 335.263794
557475.639648 7133770.204102 334.035522
557470.978027 7133767.533447 331.651093
557474.326660 7133769.013916 340.889740
557470.829102 7133768.384033 328.834991
557469.298340 7133766.638916 328.775146
557470.820313 7133769.826660 327.224731
557469.363770 7133767.534424 327.877563
557473.504883 7133774.110352 326.097504
557470.195801 7133770.873047 325.109863
557471.518555 7133773.905518 323.247620
557469.209473 7133768.611816 322.865662
557468.107910 7133767.487549 325.831360
557472.210938 7133770.376953 322.514252
557472.931152 7133765.907227 323.007904
557468.581543 7133764.843506 323.015778
557476.274902 7133770.004395 322.665619
557478.498047 7133765.510254 323.218689
557480.764160 7133761.252930 323.639557
557475.838867 7133761.377197 323.420227
557478.631836 7133757.390381 322.927124
557481.656738 7133753.803223 322.252594
557473.587402 7133757.409912 322.783356
557470.628418 7133761.354736 323.272430
557477.040039 7133753.690918 322.104370
557471.856934 7133753.253174 321.838013
557480.595703 7133750.150635 321.456360
557485.019043 7133750.166260 321.595032
557475.684082 7133749.691162 321.176056
557479.296387 7133746.117188 320.531219
557469.729980 7133748.607666 319.979095
557473.453125 7133745.019531 319.416229
557465.659668 7133752.466797 320.549164
557468.142578 7133757.083984 322.544952
557462.252441 7133746.968262 316.890137
557466.320801 7133743.261719 316.403625
557457.861816 7133751.879883 317.864655
557453.990723 7133744.613281 313.076324
557462.257324 7133756.903076 321.589264
557456.961914 7133757.308594 320.542175
557465.468750 7133761.232422 323.267700
557460.419922 7133761.000000 323.000000
557465.231445 7133765.489258 324.352600
557467.070313 7133765.413086 326.708923
557468.121094 7133766.242676 327.659454
557465.332520 7133764.070068 325.904572
557467.112793 7133765.048096 328.093719
557462.903320 7133762.796875 325.503510
557462.773438 7133762.825684 327.040710
557452.317871 7133758.579834 320.885223
557451.578613 7133760.153564 328.703583
557451.755371 7133754.877686 318.087402
557447.143555 7133757.516113 319.329529
557449.815918 7133748.935303 314.219055
557445.653320 7133752.915527 316.207886
557445.979492 7133742.352783 309.632874
557449.391113 7133737.786865 308.313873
557442.904297 7133747.240479 312.368011
557438.530762 7133741.966553 308.575653
557440.707031 7133752.022705 315.299530
557442.152832 7133756.555420 318.226196
557438.134766 7133748.604980 312.855164
557435.294434 7133756.037109 317.642181
557433.492676 7133747.527344 311.651672
557427.904297 7133753.064941 315.012848
557425.850098 7133756.213623 321.902191
557427.620605 7133745.929443 310.165405
557432.268555 7133740.182129 306.838654
557421.133301 7133750.974121 312.779297
557422.450684 7133755.674561 316.439545
557422.486328 7133744.252197 308.734741
557426.278320 7133739.226074 305.776459
557415.837891 7133745.766602 308.871704
557413.070801 7133752.441406 312.257965
557419.219238 7133739.405273 305.426575
557411.966797 7133741.189697 303.507904
557414.214355 7133734.992432 300.208374
557406.193359 7133748.411621 305.390991
557403.599121 7133738.553223 296.225006
557395.652832 7133747.903809 297.143555
557398.046875 7133755.726807 307.429352
557391.521973 7133738.337158 287.835510
557398.473633 7133729.724365 286.221832
557385.703125 7133747.377441 291.057587
557388.849121 7133755.183350 302.020111
557380.898438 7133739.521729 280.201263
557377.915527 7133748.755371 288.424103
557388.166992 7133729.010986 278.845306
557378.129395 7133727.156006 270.399933
557395.360840 7133721.304688 277.792084
557386.691895 7133721.532227 272.364166
557405.260742 7133721.851807 284.801117
557408.835938 7133729.549072 292.912598
557403.533203 7133713.297363 277.092255
557391.047363 7133713.683105 269.232880
557412.961914 7133714.659668 284.468414
557414.500977 7133703.740723 278.936615
557414.296875 7133722.441650 291.018951
557419.530762 7133716.949707 289.815582
557422.789551 7133722.482178 294.765656
557421.808105 7133709.838379 286.186707
557427.117188 7133716.781250 291.416290
557426.537109 7133703.978516 286.079285
557422.965820 7133695.761963 281.210541
557431.071777 7133711.284912 290.173920
557436.084961 7133706.927246 290.677338
557435.223633 7133718.385742 294.494690
557439.151367 7133714.000732 293.967255
557431.092773 7133723.207031 295.842499
557439.116699 7133725.527100 299.161896
557426.798828 7133728.165283 298.569000
557433.431641 7133728.100586 299.144073
557418.171875 7133728.467285 297.554718
557422.829102 7133733.741699 301.878632
557431.041992 7133733.317383 302.287231
557436.224121 7133736.110596 304.552216
557437.793457 7133731.507813 301.819275
557441.946777 7133736.323486 305.394409
557444.686035 7133731.681641 303.903931
557452.841797 7133733.990234 307.631561
557447.777832 7133727.506348 302.882935
557457.791016 7133740.539063 312.386932
557461.735352 7133737.145264 311.973724
557470.128906 7133739.810791 315.973969
557465.412598 7133733.741211 311.522797
557456.499512 7133730.566650 307.144745
557473.408691 7133736.328125 315.316589
557476.971680 7133741.496094 318.845886
557468.752441 7133730.052002 310.794739
557476.691895 7133732.899170 314.711243
557460.060547 7133726.795166 306.469879
557463.652832 7133722.464355 305.739441
557451.257813 7133723.578125 302.111969
557454.901855 7133719.229248 301.458557
557443.045410 7133720.785645 298.160675
557446.728027 7133716.605957 297.590820
557444.035156 7133709.822754 294.501740
557450.740234 7133712.493164 297.807983
557442.654297 7133702.355957 291.789429
557433.081543 7133698.844727 287.241943
557452.149414 7133705.485596 296.280396
557448.342285 7133696.427979 292.163483
557458.377441 7133713.860596 301.106598
557461.633301 7133707.446777 300.448914
557456.554688 7133698.341553 295.830383
557466.947266 7133716.992676 305.256653
557469.994141 7133709.981689 304.353851
557475.347168 7133719.952881 309.329163
557464.671387 7133700.000488 299.383820
557473.002930 7133701.294678 302.710419
557459.304688 7133690.870117 294.649292
557467.916992 7133691.552734 297.840363
557452.272461 7133691.064941 292.059906
557452.517578 7133682.662354 289.668457
557462.765137 7133682.789307 293.310547
557445.164063 7133687.910645 288.465668
557442.651855 7133679.215332 285.039246
557436.427246 7133684.363037 284.088318
557448.950195 7133674.076416 285.812347
557466.770996 7133676.288330 292.252960
557471.796387 7133682.923096 295.955383
557476.769043 7133691.702148 300.419281
557481.306152 7133681.816406 298.201782
557481.790527 7133701.239746 305.204834
557478.434570 7133711.453857 307.816864
557486.442383 7133690.888672 302.846375
557491.202148 7133700.085938 307.446014
557495.651855 7133691.115234 305.545471
557487.538086 7133711.113281 310.313660
557497.174316 7133709.261719 312.371765
557493.140137 7133720.790039 315.325378
557501.087402 7133698.443359 309.596924
557506.902344 7133707.222900 314.395660
557502.606934 7133718.133301 317.026398
557512.312988 7133715.696045 318.892731
557497.222168 7133728.175293 318.962738
557506.361328 7133725.278564 320.506165
557488.680664 7133731.078857 317.643341
557491.761719 7133735.100342 319.100647
557483.986816 7133721.648682 312.959106
557480.348145 7133728.947266 314.074921
557484.129395 7133735.031250 317.913788
557486.750000 7133739.011475 319.285065
557493.340332 7133738.288818 319.823883
557480.250977 7133738.139893 318.248413
557482.773438 7133742.583984 319.868988
557484.105469 7133746.473877 320.765198
557488.174316 7133742.572754 320.092651
557488.993652 7133746.098145 320.885620
557494.178711 7133741.525391 320.450256
557495.358887 7133745.065674 321.261261
557500.902832 7133736.538574 321.274475
557499.714355 7133732.924316 320.474915
557508.628418 7133730.581543 322.227325
557515.935547 7133722.771973 322.335114
557522.187988 7133712.928467 320.671631
557509.960938 7133734.400391 323.074493
557486.083984 7133753.854248 322.433777
557472.146973 7133725.871338 309.972015
557435.015137 7133676.304932 280.567749
557428.982910 7133668.807373 273.964630
557427.946777 7133679.531006 277.737976
557419.970215 7133664.371826 266.661896
557419.563965 7133673.468018 270.095764
557414.398438 7133656.136719 260.005066
557410.502441 7133666.604492 261.795837
557405.452148 7133658.366455 255.466431
557399.612793 7133664.945313 254.574265
557405.574219 7133650.046631 252.128265
557396.395020 7133654.491455 248.409653
557398.886230 7133643.179688 244.795242
557390.034180 7133646.044922 241.090851
557406.576172 7133642.604004 247.755966
557404.125977 7133637.777344 241.574875
557408.660645 7133638.253906 243.799591
557408.102051 7133634.862549 239.822037
557404.197266 7133632.178955 235.387573
557409.758301 7133631.787598 237.276154
557399.230469 7133636.531738 238.331268
557397.580566 7133632.322754 233.005844
557395.832520 7133635.635498 236.085220
557400.862305 7133629.836670 231.498001
557403.310547 7133627.405273 230.014847
557397.544922 7133627.321777 227.496765
557391.151855 7133630.112793 228.084473
557391.911621 7133634.947998 233.834061
557392.113770 7133625.500244 223.323822
557387.010742 7133626.380371 222.340347
557395.454590 7133621.848633 220.832870
557401.039551 7133623.164307 224.596756
557388.979492 7133621.752930 217.875961
557392.585449 7133618.346191 216.001419
557389.500977 7133618.077148 214.547791
557396.210938 7133617.453369 216.693771
557393.677246 7133615.269775 214.165070
557399.468750 7133618.978027 219.515274
557398.883301 7133616.039795 216.457977
557403.863770 7133618.858398 221.247177
557401.810059 7133615.651855 217.247086
557405.645020 7133613.866455 217.026398
557408.908691 7133611.702637 218.290924
557402.798340 7133612.750488 215.836105
557400.036133 7133613.500732 215.341049
557404.770508 7133610.867920 216.188629
557406.438965 7133608.988770 216.656784
557406.274414 7133606.552490 216.259384
557405.710449 7133604.136230 215.639771
557406.187012 7133601.720947 215.499756
557396.874023 7133614.156738 214.713562
557394.183105 7133613.006592 214.039429
557390.931152 7133615.996582 213.649979
557387.818848 7133615.458496 212.852112
557386.216797 7133612.174072 211.394226
557383.686523 7133614.086426 211.019470
557383.288086 7133609.705566 209.288101
557381.419922 7133619.000000 212.000000
557386.117188 7133618.632568 213.690353
557380.297852 7133614.310547 211.656006
557379.606934 7133610.895752 213.641693
557379.254883 7133618.437012 213.560516
557380.494141 7133614.547119 213.743759
557376.591309 7133621.901611 213.429443
557380.657715 7133622.161621 214.994522
557373.219238 7133620.838623 214.042755
557375.987305 7133618.678467 218.375595
557370.856934 7133622.847656 213.072388
557372.962402 7133624.709961 215.208099
557367.097168 7133622.734131 213.567932
557367.970215 7133623.454346 213.453140
557370.063477 7133621.156250 216.778259
557364.480957 7133622.282471 218.073837
557370.515625 7133619.378418 221.544907
557361.256836 7133623.678711 213.963898
557359.137207 7133623.380859 217.217804
557364.219238 7133623.590088 213.734619
557363.014648 7133624.067627 213.790359
557365.707520 7133623.835938 213.667114
557368.017090 7133624.677979 213.511841
557363.128906 7133625.007813 212.359146
557364.646973 7133627.447021 215.214844
557361.616699 7133626.715576 213.128784
557369.721191 7133627.966309 217.691559
557365.116699 7133633.726807 220.680145
557375.553711 7133627.964844 219.833344
557378.170898 7133624.593994 216.880157
557372.891113 7133632.604980 223.878906
557379.660156 7133631.362305 225.237228
557370.748535 7133642.116211 227.707779
557363.462402 7133643.330078 222.592239
557378.783203 7133637.028809 230.302490
557379.963867 7133646.632080 235.343842
557385.487793 7133633.727539 230.094330
557386.496094 7133638.988770 235.653137
557384.921875 7133629.875000 225.474579
557381.281738 7133627.358398 221.262558
557383.351074 7133623.892822 218.051453
557384.226074 7133621.311279 215.204178
557393.813965 7133638.871582 238.769012
557385.077637 7133656.113281 242.186142
557377.815918 7133655.789551 237.179703
557379.001465 7133662.969971 240.012497
557372.460449 7133653.199707 232.311569
557374.044922 7133660.871094 235.518661
557365.531738 7133651.901123 226.448166
557367.890137 7133662.181641 230.873978
557357.614258 7133650.417236 219.646118
557359.131836 7133639.036133 218.072693
557361.508301 7133659.217285 224.967331
557354.833496 7133662.800537 220.381012
557361.509277 7133667.333008 226.953796
557366.709473 7133671.439941 232.106659
557361.146973 7133676.994385 228.545807
557373.574219 7133669.873779 237.340942
557369.253418 7133680.846436 236.113068
557380.846680 7133670.818604 243.477905
557377.631836 7133678.973145 242.782257
557384.043457 7133664.719727 244.506973
557386.359375 7133670.085938 247.760468
557384.847656 7133677.320068 248.310760
557390.426758 7133663.882813 248.581512
557392.521973 7133673.310547 253.294525
557389.352539 7133683.302979 253.372482
557396.175781 7133680.314209 258.153168
557381.628906 7133686.120605 247.560822
557384.840820 7133692.913330 251.869400
557394.685059 7133689.822998 259.212982
557375.949219 7133694.342529 245.192612
557376.580078 7133701.043213 250.337540
557374.830566 7133686.830811 242.104782
557368.393066 7133691.996338 238.511276
557366.137695 7133700.937012 243.556488
557360.895020 7133688.199951 231.083572
557360.683105 7133696.510010 236.500870
557352.297852 7133696.524414 231.022675
557356.330566 7133703.047852 238.285629
557353.110840 7133688.909912 225.982956
557356.392578 7133683.005371 225.741898
557344.791992 7133692.791504 222.951645
557345.671387 7133701.826904 226.578964
557349.695801 7133683.398926 220.534897
557340.070313 7133687.046875 215.842606
557355.008301 7133677.490479 223.431259
557350.049316 7133673.125488 218.398239
557343.930664 7133679.679688 214.725677
557356.643555 7133671.416748 223.682907
557345.640137 7133663.274902 212.789505
557342.796387 7133673.152588 212.362503
557349.973145 7133653.418701 214.150040
557342.161133 7133651.460938 207.395309
557351.954590 7133646.505127 214.114594
557347.037109 7133644.829102 209.759796
557354.844238 7133642.396240 215.369583
557350.529785 7133638.769043 211.017303
557355.157227 7133634.170654 213.761230
557359.419922 7133630.000000 216.000000
557356.721680 7133629.022949 213.552872
557358.895020 7133626.871582 212.175156
557360.527344 7133625.845215 211.598862
557355.386719 7133627.047119 210.871170
557354.013184 7133629.519287 212.001740
557357.650879 7133625.263184 211.479950
557350.945801 7133626.143066 208.772797
557360.619629 7133624.468994 213.675415
557358.077637 7133624.457275 213.675934
557356.096680 7133624.714355 213.138550
557355.993164 7133624.248779 213.956833
557353.638672 7133624.970947 212.225800
557351.464844 7133624.796631 215.614929
557355.563477 7133624.023193 219.029175
557350.288086 7133625.348145 211.721024
557347.265137 7133625.624023 213.990326
557348.152344 7133625.780762 211.154587
557347.294922 7133626.100830 210.017700
557345.213867 7133626.130127 212.762436
557342.189941 7133626.549072 216.340958
557344.812500 7133626.790039 208.647552
557341.676270 7133626.850342 212.787231
557338.539551 7133627.972412 208.623520
557336.916504 7133627.722900 213.618912
557336.687012 7133627.628418 218.257034
557330.498535 7133629.296143 210.636124
557335.012695 7133629.562256 201.880905
557333.169434 7133628.341064 215.031723
557329.975098 7133628.893555 215.167542
557332.512695 7133628.395020 219.879333
557336.356445 7133627.698730 222.025345
557334.143066 7133628.145508 226.510483
557340.958984 7133626.830322 221.309402
557337.919434 7133627.407471 224.122971
557346.647949 7133625.706543 218.694565
557346.501465 7133625.799805 223.784286
557340.456543 7133626.971924 227.104309
557351.531250 7133624.789551 221.283279
557352.450195 7133624.554932 225.907379
557347.043945 7133625.499756 229.269119
557356.677246 7133623.708984 223.759567
557358.335938 7133621.726318 227.960220
557360.262207 7133623.056641 221.495407
557361.147949 7133621.741211 225.196640
557365.328125 7133620.529053 223.796783
557371.036621 7133616.638672 227.296234
557364.441895 7133619.082275 227.943558
557376.630371 7133615.821045 224.959000
557376.721680 7133613.656006 229.844879
557378.901855 7133615.804932 221.504288
557380.159668 7133614.587646 217.523376
557379.590332 7133612.952148 223.440460
557378.776855 7133612.073486 228.964218
557379.289063 7133609.516846 218.904572
557378.767578 7133608.214600 224.925735
557377.216309 7133604.920166 219.502960
557378.634277 7133607.355225 230.505127
557375.945313 7133600.540527 223.743805
557378.749023 7133611.206055 231.596313
557379.391602 7133610.000000 233.522018
557378.128418 7133610.782471 233.679901
557373.255859 7133613.424805 232.448822
557374.470215 7133610.989014 236.464981
557367.910645 7133616.193848 230.883606
557367.640625 7133614.499268 234.962143
557361.515625 7133618.193604 232.618027
557357.124023 7133620.865723 230.977020
557354.604492 7133620.361328 234.456863
557353.401367 7133622.923096 229.942947
557349.410645 7133622.913086 233.751328
557350.101563 7133620.898926 237.547165
557345.932617 7133622.108398 238.884155
557352.460938 7133619.026123 240.009933
557348.428223 7133620.387695 240.957687
557357.467285 7133617.597168 238.024994
557355.353516 7133617.106445 242.304764
557362.412598 7133615.573486 237.943817
557358.863281 7133616.020996 240.952042
557366.845215 7133612.882568 240.228638
557361.742676 7133614.368164 242.157288
557371.104004 7133612.376953 236.814941
557371.261719 7133610.873047 239.626190
557375.210938 7133609.712402 238.748138
557371.713379 7133609.572754 241.981888
557376.453125 7133610.146729 236.368240
557378.249023 7133609.796875 236.952454
557381.002441 7133609.388428 236.275589
557381.460938 7133606.678711 234.947632
557380.013184 7133609.509277 242.563934
557385.362305 7133607.517090 241.116165
557384.907715 7133609.530762 247.777893
557389.143555 7133606.824951 245.941223
557381.528320 7133610.421143 249.823441
557377.072266 7133609.741943 248.636398
557384.589844 7133610.757324 250.608307
557384.597656 7133611.866211 252.773590
557387.777832 7133610.906006 251.095947
557388.661621 7133612.515869 253.838943
557387.100098 7133613.410645 255.641098
557389.940430 7133611.747803 252.203568
557391.581055 7133612.367188 253.081192
557391.427734 7133610.000000 249.494720
557391.255371 7133602.729004 248.474289
557394.122559 7133604.873779 253.263550
557389.118652 7133599.631592 244.444290
557387.316895 7133602.826172 241.903961
557384.773438 7133602.866943 238.581009
557382.461426 7133599.986572 234.820923
557379.062988 7133600.375488 230.413574
557380.963867 7133594.103271 231.466217
557377.316406 7133594.543457 226.632065
557374.655273 7133591.937012 222.179077
557378.214844 7133587.757568 226.174652
557374.462891 7133586.520996 220.754684
557376.625000 7133582.071533 222.575439
557372.417480 7133589.452393 218.090805
557373.513184 7133594.961182 217.734238
557371.728516 7133583.663086 215.728775
557372.140625 7133591.020508 212.532425
557374.935547 7133576.944824 219.023849
557371.141602 7133577.072998 213.525192
557379.297363 7133577.273438 225.885910
557380.995605 7133582.396240 229.342575
557377.635742 7133570.691895 222.382202
557381.455566 7133573.032715 228.899826
557373.107910 7133570.597412 214.976242
557375.469238 7133566.744873 218.230255
557373.853516 7133563.976807 215.210724
557377.758789 7133562.022461 219.952087
557382.115234 7133566.541016 226.896057
557373.468262 7133557.019043 212.541367
557370.599609 7133564.466553 210.036682
557376.552246 7133551.329346 209.941971
557371.289551 7133551.403564 206.553085
557372.055176 7133545.673096 201.879028
557366.706543 7133549.879639 201.478195
557368.355469 7133557.161377 205.392517
557362.756348 7133545.419922 194.853363
557363.693848 7133550.411865 197.132843
557359.191895 7133539.703613 188.122482
557373.998047 7133544.201660 196.632935
557358.605957 7133544.509277 187.596741
557356.422363 7133541.965576 183.605209
557361.336426 7133549.757080 192.479568
557359.382813 7133551.018555 187.801086
557362.618652 7133553.378662 195.634644
557364.842285 7133555.231689 199.635910
557362.368652 7133554.126465 191.794571
557363.467773 7133557.253906 194.965088
557361.358887 7133558.401855 189.696106
557364.507813 7133561.794678 194.226303
557364.167480 7133560.844482 199.159561
557363.408203 7133566.873779 191.718826
557365.529297 7133566.231689 197.981110
557358.628418 7133562.924316 185.713913
557356.001465 7133554.162354 183.021240
557360.204102 7133570.271973 187.161606
557356.730957 7133565.850098 182.700485
557363.838867 7133574.634766 191.789627
557367.114258 7133573.034912 196.657120
557361.700195 7133576.057617 188.845596
557359.499512 7133571.269775 183.891159
557364.422363 7133573.907227 186.937714
557362.560547 7133567.904785 183.732056
557366.573730 7133577.888184 189.564194
557368.023438 7133567.291016 186.049637
557363.723633 7133560.427490 181.843109
557359.276367 7133564.075439 180.802200
557369.668457 7133558.752686 184.805649
557366.430176 7133554.279297 182.604919
557373.048340 7133563.360352 187.761536
557375.050781 7133556.494385 188.265427
557369.699707 7133552.638916 185.269653
557379.330566 7133559.037109 190.912689
557378.715820 7133554.030518 191.513962
557375.498047 7133551.543457 190.974472
557380.101563 7133551.419678 194.922516
557376.722168 7133549.512939 193.761642
557383.309082 7133552.812012 196.380112
557381.546875 7133549.826172 197.557022
557385.449219 7133551.467041 199.322906
557389.729980 7133553.334473 201.179703
557387.183105 7133550.062012 202.228500
557382.301758 7133548.024658 199.957932
557391.053223 7133551.070313 204.568817
557377.992676 7133547.784180 196.439468
557374.048340 7133546.261230 194.506516
557372.645996 7133547.674805 192.012115
557368.036621 7133543.987305 191.517502
557371.823242 7133550.327393 188.982864
557368.576660 7133546.658936 189.515762
557367.805664 7133548.552979 187.135330
557362.994141 7133544.361572 186.717178
557358.176270 7133542.188232 184.276520
557360.253906 7133545.896973 182.984711
557357.199707 7133543.366943 182.317200
557355.900391 7133543.567627 181.592224
557355.806641 7133545.842041 183.473038
557357.420898 7133545.519287 180.886032
557354.755371 7133545.063721 181.361313
557361.323730 7133551.584961 179.620758
557365.278809 7133549.387451 184.220413
557356.013672 7133547.655762 178.249252
557355.873535 7133553.040283 175.882553
557353.288086 7133547.585693 179.476044
557352.738770 7133548.489746 174.331696
557350.964844 7133548.008789 173.930634
557347.454102 7133548.276855 170.026062
557352.348633 7133551.324219 178.237259
557350.008789 7133552.415283 174.965134
557347.277832 7133549.088867 171.487762
557353.064453 7133555.985107 178.736038
557353.788086 7133559.722900 176.876541
557355.181152 7133560.325928 181.165314
557358.820313 7133558.267090 178.583710
557351.026855 7133552.007813 172.740707
557346.687012 7133550.716064 170.875092
557345.577637 7133548.561523 168.947983
557344.718750 7133548.060059 168.205322
557368.719727 7133578.186768 201.893158
557367.211426 7133574.209961 201.765671
557370.136230 7133582.232910 200.094269
557369.769531 7133582.039551 204.785263
557370.770020 7133586.076172 208.754440
557368.531738 7133580.471436 209.742767
557373.059570 7133590.106689 207.096191
557374.335449 7133596.245850 213.059967
557375.896484 7133599.255859 211.281631
557375.417969 7133600.353027 216.298874
557368.572754 7133572.780273 208.858810
557367.386719 7133577.134521 205.237762
557367.105469 7133565.368652 205.277023
557366.020508 7133571.131348 204.257858
557365.120117 7133565.556885 202.008469
557366.313477 7133570.082764 200.232498
557365.829102 7133560.639404 202.339157
557395.678711 7133599.729980 255.775894
557396.749512 7133604.225098 257.527771
557397.162109 7133607.699707 257.048492
557395.002930 7133610.721680 253.768814
557395.899414 7133613.037598 257.260620
557393.031250 7133613.323486 255.237366
557397.147949 7133614.479248 260.315704
557393.134277 7133615.080322 257.835297
557400.801270 7133613.654541 262.523621
557397.720215 7133616.257324 263.296692
557393.398926 7133616.978027 260.697266
557402.079102 7133614.818359 265.224915
557398.240234 7133617.708008 265.660156
557393.531738 7133618.866699 263.376556
557402.785156 7133616.232178 267.769196
557405.755371 7133613.585693 266.865570
557398.372070 7133619.165283 267.794708
557394.784668 7133619.922119 265.750427
557403.016113 7133617.732666 270.031555
557398.251465 7133621.179932 270.454559
557407.041016 7133614.627930 269.409790
557407.434082 7133616.274902 271.986481
557410.559570 7133613.541260 271.067719
557403.212891 7133619.778076 272.902679
557407.899414 7133618.276611 275.062897
557404.247070 7133622.564941 276.215607
557399.620117 7133623.715332 274.097168
557408.971680 7133621.042725 278.290192
557406.418945 7133623.845459 277.208740
557411.228516 7133622.988525 279.268555
557408.590332 7133625.136963 278.150024
557413.423340 7133623.164795 280.258942
557411.881836 7133626.331055 279.773010
557415.505859 7133621.653320 281.172516
557414.915039 7133625.359375 280.849884
557417.637207 7133627.149658 282.455322
557414.223145 7133630.937012 281.324829
557420.991699 7133627.596191 283.961609
557419.146973 7133632.662842 283.699707
557424.191895 7133626.115234 284.974182
557424.035645 7133632.666504 286.086945
557427.625488 7133628.361328 287.025024
557431.149414 7133626.223877 287.961273
557430.952148 7133630.463867 289.023163
557436.450195 7133624.131104 289.892456
557438.277832 7133626.190430 290.938873
557436.584473 7133620.566895 290.065613
557438.857422 7133621.976807 290.973511
557438.763672 7133618.018311 291.185791
557437.833496 7133615.165039 291.282837
557441.278809 7133619.588623 292.175476
557441.179688 7133623.552002 291.915039
557440.349121 7133617.143066 292.148804
557441.819336 7133617.129883 293.047394
557439.264160 7133615.635986 291.976379
557440.452637 7133615.474854 292.724060
557438.516113 7133614.076904 292.019348
557443.495117 7133618.825684 293.500488
557445.185059 7133618.520752 294.616821
557444.929199 7133620.391602 293.868835
557446.579102 7133620.857666 294.741150
557443.425293 7133621.453369 292.960327
557445.297852 7133622.922607 293.690155
557443.381836 7133624.395264 292.796844
557447.845703 7133624.107178 294.767609
557444.988770 7133626.433838 293.816772
557450.980469 7133625.159668 295.939209
557452.423340 7133627.117676 297.126709
557450.323730 7133622.390869 295.700897
557454.495605 7133623.412354 296.579956
557456.360352 7133619.346436 296.593353
557458.125977 7133621.182373 297.084015
557459.845703 7133622.841797 298.571106
557461.633301 7133619.103516 297.529938
557463.165039 7133620.791748 298.935822
557464.694336 7133622.295166 300.458984
557466.375000 7133623.783691 301.959290
557422.126953 7133638.562256 284.919830
557425.240723 7133644.521240 286.634674
557416.747559 7133637.435303 282.464478
557419.276367 7133642.160400 284.556122
557410.758301 7133635.943359 280.320038
557409.160156 7133629.867432 278.979645
557412.818359 7133642.166260 283.881195
557405.440430 7133639.743408 280.809875
557418.427734 7133646.395508 287.045898
557412.541016 7133648.173828 286.382172
557424.548828 7133650.141357 289.768188
557417.021973 7133651.854980 289.559265
557423.561523 7133655.467773 293.101074
557422.014160 7133661.694336 294.443085
557416.706543 7133657.680420 290.924408
557421.697754 7133667.601563 295.756317
557412.917480 7133665.031006 290.580292
557419.072266 7133674.768311 295.905518
557427.020996 7133677.294434 300.630493
557423.359375 7133684.574463 300.327484
557431.359863 7133688.083496 305.234955
557425.721191 7133694.289795 303.712799
557417.135742 7133690.713379 298.111694
557432.799805 7133700.101563 308.628418
557423.855957 7133702.678955 305.327850
557418.732422 7133697.175293 301.271484
557430.745605 7133710.000000 309.995667
557438.542969 7133704.201416 312.550629
557419.761230 7133709.216064 312.235016
557429.113770 7133718.936035 315.863647
557415.939941 7133701.192139 304.620361
557406.353027 7133701.292480 307.442200
557411.892578 7133695.129883 299.947205
557409.911621 7133688.136475 294.797638
557413.473145 7133682.270996 294.247253
557403.730957 7133691.725342 298.133514
557403.652832 7133683.799561 291.639984
557397.285156 7133687.284424 295.262726
557408.771973 7133683.308350 291.877869
557406.905273 7133678.148193 289.638489
557399.583008 7133675.663818 286.062439
557410.993652 7133673.957764 291.207886
557404.511719 7133669.100830 286.466156
557398.283691 7133667.064209 282.381836
557394.320313 7133670.903320 282.585175
557401.313965 7133664.147949 283.526764
557404.312012 7133660.850830 284.775238
557398.429688 7133660.614990 281.194702
557391.640625 7133663.953369 278.347015
557394.581543 7133657.044678 278.231873
557400.868164 7133653.588379 281.334534
557388.571777 7133656.370605 274.546234
557393.595703 7133651.381348 276.599792
557383.059570 7133661.231201 276.028748
557381.592285 7133654.222900 271.000092
557383.623535 7133669.263916 282.259979
557376.621094 7133666.302979 280.515167
557389.347656 7133671.504150 283.467133
557384.733887 7133677.694336 288.921844
557392.357910 7133676.967773 287.413391
557396.588379 7133681.646484 290.765198
557389.965332 7133684.442383 293.974609
557392.293457 7133693.419678 303.014709
557378.595215 7133685.520020 298.377899
557393.219727 7133704.577148 315.311096
557379.223633 7133696.624512 310.581238
557407.555176 7133712.546875 319.833923
557394.758301 7133714.967773 326.438141
557420.583496 7133719.949707 324.072906
557409.298828 7133723.037598 331.145020
557422.107910 7133730.107666 335.332550
557429.399414 7133726.201172 327.865601
557411.019531 7133732.856445 341.597412
557398.286621 7133724.621826 335.912170
557424.197754 7133740.325684 346.097656
557414.307617 7133742.584473 351.250977
557430.988770 7133736.336426 338.827148
557434.121582 7133748.915771 348.929504
557431.896484 7133743.881836 340.286774
557425.532715 7133750.287842 356.685608
557434.098145 7133756.563721 360.475311
557428.524902 7133759.485107 366.552460
557434.990723 7133754.530029 353.971832
557433.123047 7133758.869385 354.706940
557432.989258 7133754.168457 349.986115
557430.706055 7133750.528809 342.995544
557427.237793 7133759.714844 344.420593
557427.866699 7133745.715576 334.144806
557424.656738 7133753.164063 334.383545
557430.190430 7133738.875000 333.015839
557425.079590 7133741.996094 325.321045
557431.097168 7133733.080078 329.950836
557427.450684 7133735.617432 324.812469
557428.647949 7133729.836426 322.657928
557425.386230 7133733.854004 318.596771
557429.091797 7133724.652832 319.172760
557428.504395 7133728.989990 315.613586
557428.706055 7133722.632324 315.348450
557430.411621 7133728.410156 315.650421
557431.234375 7133718.337402 312.849915
557432.555664 7133722.977295 314.973389
557435.150391 7133717.397217 314.337494
557439.788086 7133711.215088 314.829956
557442.071777 7133718.475098 318.177338
557446.188965 7133704.279297 316.534210
557447.733887 7133712.437012 319.217438
557449.375488 7133720.054199 322.244904
557444.893555 7133724.952881 321.672943
557456.680664 7133721.897949 326.361053
557452.146484 7133726.631836 325.753998
557459.606934 7133728.658936 330.015808
557455.690918 7133732.964600 329.538849
557463.371582 7133735.246826 333.983459
557448.345703 7133731.074951 325.383209
557452.193848 7133737.430908 329.324554
557441.533691 7133729.620361 321.598724
557445.417969 7133735.907227 325.525879
557438.034668 7133723.633057 317.922119
557435.364746 7133728.724854 318.176697
557439.139160 7133734.834717 322.028595
557433.182617 7133734.331787 318.818115
557428.192871 7133733.970947 316.436859
557437.246094 7133740.646240 322.973785
557443.312988 7133741.222656 326.199493
557430.270020 7133740.249268 319.217560
557434.856934 7133746.789795 323.710236
557426.652344 7133737.525879 316.869446
557425.553223 7133741.150146 317.863831
557428.103516 7133746.648926 320.172180
557423.065918 7133747.113037 317.709839
557430.768555 7133752.697754 323.471954
557437.797363 7133752.666016 327.150055
557424.316895 7133751.911133 320.176514
557427.242188 7133754.429932 322.311951
557420.001465 7133750.788574 317.371765
557421.522461 7133747.083252 317.807709
557420.081543 7133755.501709 319.197540
557416.240723 7133753.571777 318.769592
557424.724609 7133755.578125 322.782501
557427.905762 7133755.747070 324.713348
557432.996582 7133756.534668 326.153229
557431.871582 7133757.387695 325.221527
557439.808594 7133757.101563 328.670624
557444.105469 7133753.835449 330.752014
557437.680664 7133758.613770 320.769531
557443.875000 7133759.852295 324.623993
557440.627930 7133758.910889 320.022919
557445.284180 7133758.641846 331.852264
557447.193359 7133757.720459 333.551941
557449.014648 7133759.889893 334.656036
557450.080078 7133755.254639 334.222931
557446.925293 7133748.091309 330.189423
557449.989258 7133758.965820 335.231140
557453.022461 7133759.092285 336.866760
557451.000977 7133760.008789 335.901184
557456.447266 7133756.497803 337.732819
557452.997070 7133749.661377 333.801270
557457.445313 7133760.059814 337.075562
557452.166992 7133760.162109 335.808502
