557345.621582 7133718.418701 354.524139
557347.413086 7133716.867432 352.395264
557326.571289 7133460.270508 322.923462
557328.362305 7133470.104492 323.557983
557313.371582 7133470.091797 294.645325
557341.529785 7133655.477539 283.842987
557338.933105 7133651.628662 284.212067
557498.187988 7133621.518066 364.278412
557504.764160 7133616.902100 376.645660
557502.025391 7133620.147461 370.852264
557502.488770 7133746.497803 390.084961
557506.531250 7133743.111084 392.561066
557470.066406 7133757.219971 403.657806
557465.521973 7133754.442139 404.135284
557415.455078 7133622.357178 315.940002
557424.677734 7133621.383545 321.610352
557324.119629 7133534.525146 363.988373
557328.955566 7133540.262695 365.089844
557331.891602 7133533.333008 365.028656
557280.910645 7133739.291504 373.250732
557269.780273 7133747.032715 374.888123
557277.212891 7133746.343750 374.729523
557244.724121 7133635.716797 365.552521
557254.404297 7133635.995605 364.203430
557253.466309 7133628.440918 364.745911
557327.642090 7133714.604248 349.180267
557324.307617 7133716.391846 346.701782
557323.282227 7133713.115234 343.917267
557344.910645 7133628.885254 251.887436
557339.932617 7133628.630615 245.369034
557345.131836 7133627.445313 236.592316
557354.200684 7133534.025879 368.571472
557356.015625 7133541.873047 369.147003
557268.782715 7133429.511719 274.792114
557269.403809 7133431.365234 266.750122
557265.820801 7133434.233887 235.891144
557370.645020 7133547.889160 371.775482
557359.318359 7133546.740479 368.604523
557337.702148 7133700.256592 347.043488
557334.558105 7133698.341064 344.524048
557337.915039 7133696.777588 344.793396
557301.299316 7133497.779541 199.662811
557301.957520 7133511.479736 179.671600
557496.630371 7133595.656982 375.332001
557500.248047 7133594.632080 386.996582
557499.911621 7133596.710693 381.927429
557463.057129 7133746.164551 394.006348
557465.085449 7133738.533691 390.676331
557461.279297 7133734.530762 386.933075
557206.031250 7133588.913574 83.979774
557212.695801 7133577.388428 43.012974
557221.707031 7133580.803955 25.139332
557350.312988 7133715.657227 351.865265
557487.915527 7133659.332764 357.065796
557182.718262 7133431.796875 290.780243
557187.638672 7133432.304443 284.087128
557182.645020 7133433.978027 284.637817
557233.297363 7133464.837158 361.295227
557232.828125 7133456.626465 360.149414
557223.756348 7133462.814697 359.005341
557269.714355 7133691.693848 343.574402
557272.803711 7133694.018311 348.425781
557269.363281 7133695.916016 348.336334
557320.813477 7133711.305908 342.090393
557317.746094 7133712.784180 341.852203
557498.925293 7133640.883057 386.321991
557506.547363 7133629.623291 389.031158
557417.412598 7133574.322510 298.183990
557411.582520 7133577.466064 287.982635
557482.815430 7133702.637207 381.488617
557478.166504 7133695.048340 382.747223
557470.212891 7133696.216064 379.423920
557328.355469 7133691.692871 369.737305
557321.036621 7133693.579590 369.723206
557349.341309 7133715.319336 368.882599
557357.995605 7133709.937256 368.881622
557458.667480 7133629.829834 334.054199
557452.192383 7133631.869629 329.869141
557455.212402 7133628.920898 330.785095
557389.828613 7133581.646240 266.217499
557379.298828 7133580.524414 258.458405
557385.722656 7133579.518799 259.507996
557125.871094 7133491.378906 326.990692
557123.695801 7133484.615234 342.828064
557123.742188 7133476.476807 326.863373
557231.991699 7133517.393066 360.805328
557224.447754 7133518.816162 360.715607
557227.762207 7133523.834229 361.149139
557292.442871 7133591.527832 366.121887
557287.459961 7133583.475586 364.052216
557282.996582 7133591.078125 364.254059
557312.171387 7133738.588135 359.544678
557315.776855 7133742.496582 361.775726
557310.585449 7133742.394775 359.391602
557333.852539 7133672.821045 313.608826
557329.018066 7133674.450928 335.906342
557329.104004 7133671.914063 318.326660
557168.117188 7133479.052246 361.814423
557175.134277 7133478.812988 361.208557
557170.749512 7133472.852539 361.755707
557322.345703 7133634.853760 184.631302
557325.986816 7133634.367432 177.694809
557291.338867 7133755.066895 369.099030
557301.549805 7133755.924805 369.854462
557300.547363 7133622.248291 366.336365
557291.366699 7133622.315918 364.682922
557295.081055 7133628.885986 364.939240
557392.154785 7133598.968262 202.171539
557251.574219 7133515.517090 23.343040
557254.171387 7133527.574707 -4.107261
557469.845215 7133596.771240 407.554108
557329.271484 7133688.205811 342.000122
557326.257813 7133689.019531 341.980011
557386.973633 7133627.274902 286.012756
557395.266113 7133632.936279 295.485046
557387.385742 7133633.164551 285.356598
557337.700195 7133657.442871 372.816437
557346.365234 7133655.553223 372.900818
557374.375000 7133584.192627 257.334778
557370.310059 7133581.766846 249.137131
557129.335938 7133473.034668 290.257843
557132.840820 7133484.170166 257.639160
557395.295410 7133708.983643 338.190308
557398.736328 7133706.149658 334.129730
557400.133789 7133709.435059 336.951080
557477.340332 7133628.522461 343.071381
557473.041504 7133632.028076 342.146576
557472.120117 7133627.658691 343.202057
557342.795898 7133726.137207 368.454712
557131.261719 7133511.695313 199.698227
557131.434082 7133510.696777 251.777878
557131.538086 7133510.584717 236.390884
557371.337891 7133721.137939 369.043915
557148.523926 7133440.559326 310.882263
557141.368652 7133444.422852 300.718445
557186.719238 7133460.552002 113.636276
557165.323242 7133456.547119 119.117363
557159.881348 7133555.607910 297.933655
557202.460938 7133409.278320 306.531433
557211.542969 7133410.081055 279.622955
557350.328125 7133646.543213 375.057587
557355.570801 7133654.083252 372.849182
557449.363281 7133672.362793 336.635956
557456.001465 7133672.554443 332.869904
557452.735352 7133676.596680 336.254669
557330.381836 7133491.994141 320.733124
557320.788574 7133499.637695 302.427765
557322.222168 7133493.894531 309.204254
557349.348633 7133626.290039 229.682068
557353.072754 7133623.470215 224.618149
557411.651367 7133568.305176 305.589813
557422.219238 7133571.044189 307.527100
557432.128906 7133729.462891 384.262695
557429.034668 7133722.523926 381.646057
557395.332031 7133585.618652 379.856384
557386.369141 7133583.117920 374.037933
557446.244629 7133559.746582 342.897369
557445.676758 7133566.119385 333.452637
557361.325684 7133575.524414 367.354492
557368.036133 7133564.102051 366.537720
557360.377930 7133566.720459 367.355072
557416.175781 7133718.541992 350.952820
557414.341797 7133715.431641 348.616760
557419.613770 7133715.778320 346.240479
557315.510742 7133753.071777 361.992401
557312.368164 7133749.818848 361.777313
557382.160156 7133608.139160 376.703064
557374.075195 7133614.732666 374.319916
557383.857422 7133618.531738 379.737976
557204.448242 7133614.728760 370.320923
557209.285645 7133608.537354 370.055389
557304.088379 7133696.967773 344.630157
557304.221680 7133701.135498 344.513184
557300.702637 7133699.362549 347.253052
557255.578125 7133415.012207 317.368500
557256.415039 7133412.072998 335.033386
557259.851074 7133415.828125 321.509613
557428.160645 7133549.887451 366.179993
557321.026367 7133704.062012 342.218384
557324.402832 7133702.568604 344.263824
557495.500488 7133633.747803 358.313934
557501.852051 7133632.762939 370.825165
557306.582031 7133484.364990 245.087830
557303.785645 7133482.634766 235.152374
557299.981934 7133483.629150 219.069687
557426.015625 7133749.435791 355.399780
557428.818359 7133751.820068 354.978302
557419.852051 7133755.521240 359.725616
557477.896973 7133681.557617 380.555847
557471.086426 7133683.341309 380.141174
557472.393555 7133690.160889 380.548279
557419.277832 7133746.258789 357.763458
557415.636719 7133754.447266 361.229065
557273.929688 7133642.270752 98.249336
557276.885742 7133654.868652 123.194092
557274.463379 7133648.904297 111.827827
557452.195313 7133654.527832 331.970917
557453.478027 7133650.770996 331.671082
557456.539551 7133653.130371 331.959259
557375.927734 7133615.547363 274.312347
557365.322266 7133613.127686 261.511688
557362.398438 7133604.655273 259.588531
557269.231934 7133635.821289 363.719086
557267.016113 7133628.669922 363.784088
557262.528809 7133635.730469 363.967407
557403.901855 7133676.440918 323.270050
557405.986816 7133673.374268 310.212738
557408.079590 7133677.205322 329.231995
557256.589355 7133634.577637 141.573196
557256.375488 7133633.203857 126.998886
557257.965820 7133639.049805 176.358490
557211.248047 7133552.948975 43.672878
557209.598145 7133545.336670 52.317497
557219.934082 7133560.289307 13.370789
557151.616211 7133514.492920 361.574677
557148.557129 7133521.027100 360.798157
557155.066895 7133519.345459 360.557953
557443.562988 7133620.448486 325.382874
557449.728516 7133619.383301 326.236969
557448.038574 7133623.986328 325.815186
557287.033691 7133459.049072 200.511810
557296.055176 7133459.609375 215.373550
557344.672363 7133659.477295 284.082397
557180.747070 7133443.125488 198.110519
557172.575684 7133443.747803 220.317307
557186.340332 7133438.817871 235.688599
557252.211426 7133727.284668 361.575073
557248.180176 7133716.159424 358.304840
557252.102051 7133722.717529 358.100983
557170.062500 7133569.401367 182.310196
557161.733887 7133555.561035 186.617218
557132.072266 7133505.005127 237.779327
557131.630859 7133502.544434 258.397339
557208.688477 7133413.837646 340.537292
557211.019531 7133418.963379 361.856018
557209.550293 7133416.880371 351.307465
557277.603516 7133613.839844 53.619305
557263.550781 7133612.837158 47.685047
557258.766113 7133606.017334 38.779755
557179.301270 7133569.979492 360.048981
557168.555176 7133572.215088 361.558105
557145.328613 7133455.229980 181.706100
557147.421875 7133459.053955 143.073242
557234.092285 7133399.912354 345.584534
557229.533203 7133395.830566 355.631592
557233.014160 7133394.595947 362.033478
557324.502930 7133445.711426 378.278168
557354.318848 7133726.169922 368.638306
557260.406738 7133462.289795 61.640369
557253.700195 7133452.691650 61.138809
557362.970215 7133700.627686 368.874573
557357.263184 7133699.373779 368.871094
557426.130371 7133603.083984 399.334564
557434.012695 7133601.087891 401.851746
557143.550781 7133528.178955 289.662537
557141.978027 7133526.145020 276.323486
557147.875977 7133530.179443 267.043427
557341.194824 7133759.531250 370.219666
557343.868652 7133759.031250 362.914246
557270.332520 7133434.349121 253.388504
557277.364746 7133435.813232 270.246124
557274.326172 7133430.870605 287.835327
557430.981445 7133711.290771 343.752747
557435.101074 7133712.298828 343.753693
557431.660645 7133715.287598 343.980072
557450.988281 7133688.197510 346.765808
557202.884277 7133590.676758 95.101517
557343.378418 7133707.034912 351.975403
557346.688477 7133705.610352 351.982239
557251.655762 7133487.161133 69.150101
557255.112793 7133474.814697 57.493839
557210.095215 7133515.980957 361.527069
557211.365234 7133522.554932 361.232361
557217.849121 7133516.043945 361.276703
557225.084473 7133563.050537 358.976990
557230.429199 7133560.447754 361.678131
557227.350586 7133557.876465 360.091156
557283.128906 7133606.805908 364.694580
557278.579590 7133598.677246 364.310059
557275.107910 7133606.464111 363.348969
557462.922852 7133752.405762 398.519440
557463.369141 7133755.829102 403.030182
557390.551758 7133764.859131 370.229218
557401.881836 7133762.893066 368.990509
557398.065430 7133766.000000 373.823975
557376.404785 7133706.872314 371.929871
557375.395508 7133698.590576 372.208344
557367.680176 7133703.776855 369.080627
557160.586914 7133564.690674 226.146973
557162.330566 7133578.864990 253.359131
557160.658203 7133567.790283 246.424942
557447.816895 7133656.594727 331.984863
557443.252441 7133660.007080 333.405548
557444.155762 7133654.339600 331.678131
557464.106445 7133760.309814 372.525787
557460.645996 7133761.106445 372.049927
557422.767090 7133559.742432 382.040283
557427.468750 7133566.848633 383.439850
557434.437500 7133562.065674 384.630127
557286.145020 7133694.418701 366.698975
557285.323730 7133684.732910 365.664764
557278.416016 7133689.730469 364.989227
557181.217773 7133614.337891 265.060822
557171.020020 7133608.624512 287.569855
557176.022461 7133611.259766 273.616730
557456.700684 7133552.488525 368.501648
557449.278320 7133552.779785 356.691559
557452.017578 7133551.750977 363.019989
557501.998535 7133726.901123 392.678375
557502.207031 7133733.663574 392.337433
557508.372070 7133730.261963 393.554199
557331.372559 7133650.085938 274.028961
557328.767090 7133645.229004 272.570679
557345.400879 7133503.692139 352.823090
557391.418945 7133656.481201 279.054108
557328.338379 7133640.689941 378.058289
557333.573730 7133640.184814 378.186737
557426.709473 7133615.645020 323.312439
557432.099121 7133623.551514 323.090302
557453.275879 7133742.720703 356.834473
557453.913086 7133739.439697 357.061676
557456.836914 7133740.804688 361.622070
557377.327148 7133702.851074 343.216400
557381.977051 7133700.279297 337.599487
557311.011230 7133697.075195 341.960083
557314.375000 7133699.523438 341.970154
557310.975586 7133701.202881 341.928192
557346.898438 7133682.422363 334.275940
557349.585449 7133684.787598 350.120026
557348.334961 7133683.138428 343.126160
557397.629883 7133760.063477 379.384857
557398.727539 7133765.565430 378.859924
557404.644043 7133762.708496 382.188293
557353.763184 7133722.263428 354.323608
557356.037598 7133722.429688 353.311951
557352.608887 7133723.828857 356.498993
557207.981934 7133426.002441 225.874435
557199.969238 7133428.082275 249.392807
557445.344238 7133741.521240 352.574249
557442.523926 7133742.991943 352.573029
557442.783691 7133740.381104 352.563019
557245.342773 7133695.798584 344.189850
557244.227539 7133695.848877 352.517853
557158.381836 7133544.776855 330.835205
557410.905273 7133687.406006 345.035767
557410.160645 7133683.490479 345.095276
557412.777832 7133610.491455 387.929749
557406.399902 7133613.318359 383.069458
557414.234863 7133597.344971 313.776489
557409.155762 7133598.641113 320.048615
557405.351563 7133594.788574 312.607605
557131.805176 7133502.877930 218.836014
557400.334961 7133609.541260 383.048737
557406.564941 7133600.384277 386.527069
557398.872559 7133602.511475 383.895142
557430.224609 7133707.235352 343.760498
557429.439941 7133703.165039 343.910400
557433.569824 7133704.232178 343.769989
557128.745605 7133465.989502 303.419708
557123.281738 7133469.482422 331.080353
557125.348633 7133467.074219 323.041534
557496.823730 7133751.589600 387.601624
557490.807129 7133752.594238 381.986816
557493.355957 7133747.002686 380.843597
557361.734375 7133614.254150 215.796936
557356.276855 7133613.538818 208.165237
557442.095703 7133611.750977 407.568787
557445.551270 7133611.191650 408.333160
557442.793457 7133608.631836 408.062042
557377.452637 7133607.254150 279.581818
557368.954102 7133603.219238 268.826294
557257.854492 7133637.052490 210.459900
557251.770996 7133628.353760 220.836121
557297.216797 7133576.382324 369.160706
557291.416992 7133567.769531 364.356079
557291.303711 7133575.341797 364.088531
557379.029785 7133674.167725 322.196716
557376.926270 7133670.671387 316.134430
557325.567871 7133454.337158 333.979828
557318.616699 7133456.562744 313.619507
557320.518555 7133454.270508 322.832916
557321.742676 7133676.791748 369.932953
557325.477051 7133671.017578 369.946075
557319.207520 7133671.430420 370.123657
557421.512695 7133738.872803 355.156097
557422.728027 7133743.107178 355.285583
557378.027832 7133585.787354 264.253693
557386.638184 7133583.972168 271.218658
557381.215820 7133588.927490 272.508301
557509.267578 7133620.584229 391.099792
557509.554199 7133626.783936 389.212524
557511.226074 7133623.534668 389.958374
557354.805176 7133720.276855 352.105621
557371.393066 7133594.113281 367.188904
557355.366699 7133587.721436 369.775177
557361.615234 7133583.762451 367.537872
557225.754395 7133419.115479 231.511612
557226.537109 7133415.095215 263.283844
557224.131348 7133418.432373 239.019577
557425.785156 7133749.133789 389.396027
557431.742188 7133751.567627 389.679810
557436.913574 7133748.504150 389.714050
557192.317383 7133608.757324 368.227539
557184.966797 7133613.302490 369.430450
557191.797852 7133616.946289 369.996490
557390.176758 7133699.372070 333.839050
557386.249512 7133697.755127 334.171082
557137.720703 7133446.035889 345.831787
557145.142090 7133443.657471 360.917114
557248.937012 7133678.062500 333.911194
557251.832031 7133673.258545 333.984894
557254.145508 7133676.882324 333.971649
557335.838379 7133750.163086 369.804321
557329.356934 7133753.863281 370.890686
557337.081543 7133755.187744 370.436310
557283.684082 7133464.945801 190.889404
557291.147949 7133471.282471 200.440994
557281.447754 7133472.327637 176.395660
557309.709961 7133642.743896 373.617218
557318.090820 7133646.166748 376.745056
557317.809082 7133640.704834 374.790283
557166.890137 7133423.473389 359.689789
557164.389648 7133426.593018 348.317352
557160.146484 7133430.376953 359.542572
557452.418945 7133692.914551 346.013428
557457.862793 7133694.368652 344.511230
557453.617188 7133697.562500 344.622589
557397.500000 7133608.728760 197.548691
557401.654785 7133609.430908 181.688782
557336.809082 7133671.812988 298.605713
557338.448242 7133669.878906 285.677612
557492.951660 7133626.566895 353.855621
557490.110352 7133629.888916 347.364685
557487.231934 7133631.865479 342.942871
557250.137207 7133460.949707 47.194031
557216.224609 7133405.663086 294.145447
557376.895020 7133657.651855 278.340607
557376.179688 7133654.050537 274.772064
557460.907227 7133735.440186 365.920166
557458.074707 7133734.032471 361.479767
557478.901855 7133612.467041 347.919647
557473.664063 7133614.161621 346.132965
557461.915039 7133699.190186 350.329163
557460.699219 7133704.262695 356.198242
557457.474609 7133702.237549 349.495544
557265.141113 7133644.229004 194.654434
557265.499512 7133635.803223 231.358810
557228.125488 7133432.914307 187.863388
557226.941895 7133427.847656 199.364197
557318.439453 7133635.812744 189.217056
557318.096680 7133636.638428 177.010574
557187.318359 7133584.913818 141.378845
557183.560547 7133585.991699 153.430908
557331.494629 7133716.790771 354.961456
557172.098145 7133414.494629 317.697906
557167.896973 7133416.758789 317.605469
557311.805664 7133430.504639 355.878754
557365.369629 7133629.560059 257.173157
557360.968262 7133626.250000 251.220718
557360.383789 7133618.570313 253.023071
557483.669922 7133736.210449 370.723846
557481.136230 7133732.673096 368.981171
557356.108398 7133626.981445 214.559280
557356.834473 7133626.806885 209.628754
557362.194824 7133627.834717 201.885254
557354.501465 7133702.235107 351.967041
557350.362793 7133704.006836 351.987030
557351.295898 7133700.107178 352.008881
557444.919922 7133729.239990 350.326263
557448.094238 7133726.606689 347.947723
557448.307129 7133729.879395 349.952301
557366.395996 7133678.044189 372.782745
557370.410645 7133670.015625 376.148041
557362.609375 7133669.997314 373.281189
557306.013672 7133633.278809 368.466034
557298.539551 7133633.381104 367.064941
557330.077148 7133620.534180 377.333954
557329.047363 7133626.559570 377.886719
557331.811523 7133617.752686 377.236908
557395.902832 7133682.647949 334.505188
557396.538086 7133679.784180 330.669434
557400.101074 7133680.578613 335.119904
557314.327148 7133632.775879 369.581238
557319.944824 7133633.226318 370.676636
557326.032715 7133551.684814 121.641968
557323.375488 7133553.864746 100.776756
557323.730469 7133550.417725 113.783722
557299.791504 7133691.756592 344.894653
557302.812988 7133689.111816 342.555084
557303.757324 7133692.987549 344.565521
557348.616699 7133755.923096 362.496857
557344.818359 7133756.871338 362.435089
557457.293457 7133761.202637 371.131317
557456.358887 7133759.541504 368.179779
557130.871582 7133481.183350 355.922668
557133.506348 7133489.865723 358.920044
557366.036133 7133671.716064 330.909393
557364.226074 7133667.915039 316.869690
557360.235840 7133580.199951 234.477966
557356.398438 7133580.558594 226.680573
557357.228516 7133704.701660 351.960052
557268.690430 7133479.041260 371.614899
557276.013672 7133480.219727 375.590210
557275.142090 7133472.309326 377.405365
557445.692871 7133664.888672 335.540588
557451.049805 7133661.391357 332.135681
557307.641113 7133703.125244 342.173828
557304.397461 7133705.225098 344.452332
557458.241211 7133625.484619 331.651398
557457.610352 7133620.149658 330.721130
557306.782715 7133526.847900 169.543686
557300.479492 7133525.276123 154.330765
557515.627441 7133706.287598 394.222595
557510.271973 7133719.166260 394.838379
557342.579590 7133494.875977 341.712708
557338.960449 7133498.138184 331.424072
557126.900391 7133456.964600 330.238647
557123.545410 7133455.443115 357.858795
557123.466797 7133461.146729 342.802795
557324.123535 7133722.540527 368.993622
557482.404785 7133599.018555 352.644592
557477.718750 7133595.572998 349.866486
557455.228516 7133701.744629 379.521027
557441.393066 7133601.347168 322.764771
557440.208496 7133607.102783 324.119141
557436.772949 7133603.397217 322.513947
557337.375977 7133703.604248 349.588409
557337.050781 7133707.138428 351.763214
557341.654785 7133759.868408 368.547363
557335.150391 7133759.238037 366.440155
557291.610840 7133714.810303 352.739594
557293.148926 7133718.595703 352.725006
557389.055176 7133722.871338 357.578186
557384.931152 7133721.384277 354.845825
557320.064453 7133606.931885 371.749542
557316.394043 7133599.730957 371.957886
557311.780762 7133607.255615 369.978699
557432.065918 7133664.215820 341.574158
557430.215332 7133670.477295 346.056152
557429.088379 7133667.114746 345.385284
557318.139160 7133640.937988 256.013153
557301.110352 7133647.251953 281.379761
557424.213867 7133765.869385 373.684326
557424.630371 7133766.208008 365.719238
557430.325684 7133765.788818 368.846863
557292.122070 7133517.201660 145.189362
557490.829102 7133706.028809 371.713013
557483.905762 7133703.267090 370.613953
557488.848633 7133700.880371 371.296783
557284.419434 7133543.716797 359.906555
557282.840332 7133534.946045 359.136383
557197.535156 7133555.349365 86.501831
557185.929199 7133548.785156 126.373085
557271.145508 7133574.145264 363.172852
557267.021484 7133582.422607 363.387787
557229.819336 7133582.944092 361.483368
557227.171387 7133592.305420 360.836853
557269.883789 7133621.581787 363.475220
557264.382813 7133621.784912 363.812317
557281.821777 7133704.948975 352.677765
557281.153320 7133709.680420 352.636414
557277.278320 7133708.220947 352.697693
557213.397949 7133508.071045 361.735809
557203.984375 7133512.342773 361.797943
557355.231934 7133546.912842 367.820526
557260.382813 7133441.896729 371.147339
557260.988281 7133449.414307 370.569122
557267.438965 7133444.070557 372.593536
557303.899414 7133753.564697 372.908325
557416.357422 7133555.614014 333.687347
557425.306152 7133553.506836 343.919586
557431.434082 7133552.896973 347.705750
557508.250488 7133648.200439 377.266602
557512.848633 7133643.395752 383.431732
557474.644043 7133636.096191 342.026367
557479.746094 7133636.807861 341.867493
557476.530762 7133640.131836 341.956787
557391.263184 7133607.166748 299.451752
557400.810547 7133604.377686 314.408234
557259.402344 7133697.859131 365.395386
557249.445313 7133701.443848 365.538513
557464.032715 7133737.107666 370.126343
557460.482910 7133738.903076 366.378937
557363.441895 7133688.678955 351.670349
557360.312012 7133692.348633 352.044037
557433.255371 7133628.713135 323.451874
557436.918457 7133625.351807 323.776855
557443.164063 7133714.376709 343.768646
557439.733887 7133717.255371 343.984253
557439.175293 7133713.295166 343.749695
557317.311523 7133437.528809 356.486969
557317.505371 7133430.039307 375.932861
557353.974609 7133748.372559 361.963165
557358.958496 7133752.589600 362.044861
557353.651367 7133753.136719 361.824677
557229.739258 7133630.179932 241.155304
557468.189453 7133574.033447 355.548065
557473.078125 7133582.750000 356.198486
557155.798340 7133434.825928 319.848785
557162.336426 7133428.941895 321.966888
557163.273438 7133430.525146 309.268158
557250.325195 7133503.522217 61.175339
557260.300781 7133511.230225 64.845978
557378.856934 7133682.582520 375.621277
557343.620117 7133760.037842 368.013031
557344.159180 7133760.067871 369.723663
557400.925781 7133654.621094 288.781525
557451.904297 7133590.950195 324.539917
557456.546875 7133597.678467 326.184082
557183.596191 7133614.947754 255.687134
557168.895508 7133605.721436 277.661072
557149.272949 7133534.053467 231.072937
557154.364258 7133537.012695 278.304321
557152.041504 7133535.572998 257.106537
557186.726074 7133521.507324 361.202637
557195.644531 7133517.216553 361.765045
557178.399902 7133517.551514 361.467468
557299.392578 7133533.570313 360.950073
557299.391113 7133541.298096 361.198608
557307.335938 7133537.891357 361.983429
557226.246582 7133556.426025 -2.002424
557226.395020 7133546.176758 3.297945
557514.596191 7133665.337402 388.248871
557509.275879 7133657.430420 387.308533
557466.493652 7133750.759277 372.346649
557470.056152 7133755.564453 373.498474
557385.256836 7133660.892090 279.652252
557380.159668 7133655.873291 275.320496
557448.158203 7133739.901367 352.558075
557447.726563 7133742.823486 352.483582
557362.251953 7133756.459717 368.155334
557369.815430 7133760.605713 365.764923
557367.262695 7133757.221436 367.902130
557461.038086 7133612.000732 334.515717
557465.299316 7133609.443848 340.266510
557465.204590 7133614.212158 340.957855
557256.604004 7133408.547852 353.959686
557269.738281 7133727.968506 358.569458
557269.015625 7133742.355469 362.532135
557266.377930 7133734.551514 360.989990
557160.839844 7133560.568848 204.493164
557300.727051 7133488.058838 214.159821
557303.598145 7133495.076660 211.046570
557287.802734 7133503.197754 155.426208
557284.461914 7133488.728271 166.901840
557274.298340 7133419.446289 374.681610
557266.837402 7133427.014404 373.063690
557273.947754 7133429.427490 374.616547
557165.601563 7133467.613770 362.344757
557171.874512 7133466.252930 361.980225
557345.543945 7133752.846191 362.067505
557339.301270 7133748.817139 361.976624
557315.948730 7133535.965820 363.002472
557162.841797 7133598.364014 319.404205
557164.358398 7133600.118164 291.199982
557165.128906 7133604.342529 308.824951
557351.354980 7133626.226318 227.942673
557144.403320 7133486.822998 131.960434
557262.627930 7133607.432129 364.036682
557268.253418 7133606.562500 363.264404
557470.198242 7133697.963379 357.129181
557473.825684 7133700.336914 363.613678
557469.201172 7133702.838623 363.064423
557393.578125 7133724.424561 360.822510
557398.947266 7133726.094971 363.643005
557302.436523 7133479.773682 377.053070
557291.720215 7133480.948242 377.093262
557221.347168 7133509.209473 361.252106
557226.350098 7133502.097168 360.002045
557225.553223 7133499.540527 360.599152
557511.663086 7133627.592285 388.966034
557511.917969 7133620.457764 390.524048
557180.379395 7133553.796387 150.695190
557179.290527 7133560.724854 158.497894
557176.709473 7133557.191895 164.368561
557284.163086 7133743.339600 355.498444
557289.341797 7133743.356201 352.944550
557286.341797 7133747.317139 355.405396
557279.568359 7133506.292480 366.465942
557351.377441 7133545.184570 367.559448
557344.279785 7133537.749756 366.968872
557344.478516 7133547.220459 366.805481
557446.694824 7133711.390625 343.743011
557447.009766 7133715.571045 343.614868
557349.281250 7133520.354248 366.768127
557345.193848 7133512.808105 365.738495
557325.592773 7133758.406250 366.768433
557322.545898 7133756.638916 371.036438
557172.436523 7133486.785156 107.297234
557167.196289 7133476.143066 108.898537
557161.919434 7133440.375732 366.372467
557160.329102 7133433.390869 366.638031
557157.136230 7133446.395264 364.259705
557367.278809 7133621.949951 217.261322
557362.658203 7133626.325439 215.308395
557363.480957 7133627.351563 212.819214
557183.134277 7133550.198486 137.554535
557185.873535 7133555.678467 130.469711
557178.494629 7133578.950439 161.453568
557133.040527 7133521.124023 285.238647
557130.125488 7133511.159912 309.782318
557367.095215 7133707.521729 351.993561
557370.913574 7133708.586670 351.463379
557368.169434 7133711.871094 351.974854
557489.451172 7133658.221680 382.958191
557490.083008 7133663.645996 382.740143
557494.723145 7133652.360840 384.309540
557426.855957 7133710.260742 343.742889
557423.266113 7133713.165039 343.926727
557422.600586 7133709.315430 343.939972
557408.048340 7133588.038086 290.641663
557402.623535 7133591.478516 300.834595
557497.186523 7133723.262207 370.670410
557493.368652 7133720.115967 370.765717
557266.888184 7133586.115479 30.146275
557280.047363 7133593.887207 38.984699
557262.970703 7133595.365479 33.409874
557341.001953 7133694.808105 346.983276
557337.794434 7133693.126709 344.345093
557361.919922 7133622.309082 217.794754
557326.640625 7133660.985596 269.347076
557329.739258 7133658.828369 269.709290
557469.089355 7133720.345703 369.149139
557468.661621 7133724.353271 368.957611
557465.028320 7133722.001709 368.112610
557505.976074 7133704.155762 374.092041
557493.573242 7133700.487305 371.723816
557498.802734 7133698.551758 372.079407
557390.470215 7133760.950684 365.385468
557404.405762 7133758.799316 364.341400
557384.202637 7133569.067627 270.288177
557377.047363 7133564.598145 275.673889
557394.262207 7133569.958252 285.784912
557164.101563 7133595.696777 281.489502
557354.619141 7133592.707275 222.669113
557355.291016 7133583.392822 216.066620
557381.811523 7133549.799316 374.831268
557379.632813 7133546.941162 370.464813
557421.950684 7133666.178955 339.429871
557300.249023 7133444.974365 267.758636
557302.328613 7133455.555420 246.796066
557299.118652 7133447.445557 256.667999
557240.008789 7133450.688965 363.178162
557244.063965 7133624.946533 365.223145
557252.851563 7133621.832031 364.086548
557389.215820 7133669.295654 281.791046
557386.649414 7133669.684326 288.261200
557296.231934 7133465.147217 214.265839
557298.625977 7133460.593506 225.904800
557164.174805 7133547.361572 360.206451
557163.605469 7133536.967529 360.162231
557154.901367 7133533.998535 354.918182
557367.685547 7133615.720215 222.341751
557357.651367 7133624.700195 216.301239
557294.396484 7133668.644287 323.114807
557305.041016 7133669.520752 311.385498
557388.147949 7133561.695313 303.594147
557392.305664 7133565.279541 297.396637
557386.413086 7133562.902100 298.447388
557252.708496 7133622.123535 83.097191
557261.426758 7133645.851563 120.030441
557257.930176 7133636.560547 109.000374
557196.086426 7133427.142822 277.605133
557197.471680 7133423.873047 293.807312
557400.678223 7133583.149414 273.469452
557393.113281 7133583.482666 272.294037
557351.044434 7133752.107178 368.758575
557349.055176 7133747.042725 368.237335
557342.291504 7133745.453857 368.662872
557278.418457 7133415.064697 344.483154
557276.668945 7133409.667969 356.940125
557220.723633 7133614.789551 128.554733
557222.354980 7133608.287598 100.902565
557217.017090 7133616.834717 144.152359
557409.686523 7133558.535156 322.532654
557472.251465 7133623.147461 344.076569
557472.782227 7133618.632324 345.012634
557476.829102 7133620.202148 344.985046
557389.324707 7133596.917236 190.001740
557389.036621 7133592.200195 168.944260
557469.584961 7133651.517334 336.993988
557473.870605 7133652.514893 339.662170
557452.478027 7133746.364258 356.392944
557450.067383 7133744.345459 353.020020
557444.134766 7133722.235107 345.957733
557447.395996 7133719.566406 343.856476
557447.756348 7133723.256836 345.866302
557456.280273 7133743.607910 389.841187
557453.340820 7133738.262695 388.230377
557452.727051 7133748.133545 391.145813
557162.793457 7133591.708496 307.902008
557323.736816 7133502.110352 366.665588
557314.274902 7133506.224854 365.268921
557321.455078 7133511.131592 363.299622
557332.051270 7133735.706299 362.062744
557226.692383 7133640.325195 368.339417
557223.564453 7133635.530762 369.205109
557220.190918 7133639.957764 365.989288
557488.015625 7133655.103516 356.639709
557490.441895 7133656.646484 359.408234
557401.520508 7133606.359863 163.056580
557401.884277 7133610.960938 163.477966
557212.538574 7133627.298340 287.019287
557231.693848 7133417.916992 248.728577
557447.242188 7133747.164795 390.241730
557441.380371 7133743.263916 389.519440
557296.412109 7133717.818848 369.551575
557303.735840 7133707.723877 369.759766
557344.649414 7133620.341309 136.862854
557342.864258 7133618.286621 126.477295
557441.971191 7133598.503662 402.456665
557450.108887 7133595.621094 403.238190
557443.540527 7133587.628662 396.715515
557335.391113 7133689.262695 369.786499
557329.559082 7133686.086426 369.959229
557347.488281 7133602.673584 138.128174
557344.312500 7133596.623291 130.827652
557414.493164 7133763.775391 368.194122
557419.417969 7133764.918213 366.907288
557411.437012 7133765.575684 372.089996
557285.803711 7133434.179932 376.105377
557286.072266 7133441.838867 376.634155
557300.658203 7133651.988281 120.637779
557290.232422 7133657.923096 126.702904
557149.641113 7133535.838623 212.104996
557244.270020 7133402.391846 356.954285
557246.567383 7133402.024414 364.994476
557294.362305 7133686.047119 342.230530
557293.467285 7133681.520264 341.881500
557457.794922 7133748.631104 391.440918
557459.534668 7133738.878174 388.408997
557373.350586 7133650.198242 272.413239
557376.226563 7133649.244629 269.663239
557232.982422 7133548.093994 -16.871338
557229.854492 7133550.095703 -8.661789
557209.139648 7133574.047607 56.913422
557218.424805 7133572.071289 15.177851
557386.395508 7133675.556396 306.213470
557388.622559 7133673.957520 296.629059
557159.441406 7133551.209473 342.677124
557160.996582 7133560.600098 346.788208
557165.889648 7133422.317139 321.387390
557267.345703 7133438.263428 215.472443
557264.508301 7133439.682129 196.189697
557318.666992 7133734.283691 361.902954
557323.367676 7133733.638184 362.167816
557312.952148 7133672.349854 319.881958
557318.544922 7133673.448730 324.587646
557312.376953 7133675.434570 340.082397
557230.472656 7133627.313965 367.141174
557220.145508 7133628.443604 368.525574
557260.835938 7133410.632568 371.039215
557264.817383 7133406.408203 367.482452
557253.200195 7133411.962158 369.505035
557385.481445 7133725.436035 359.910614
557381.900879 7133727.879150 361.772247
557411.512207 7133713.661865 345.399261
557407.982422 7133717.031738 351.149139
557451.536133 7133730.142822 350.388580
557448.372559 7133733.299561 351.973541
557486.187988 7133694.302734 368.332092
557305.227539 7133568.516357 374.049805
557400.313477 7133667.474121 383.141022
557404.607910 7133659.144287 384.219696
557236.214355 7133542.693115 -22.861267
557240.067871 7133542.663818 -26.468191
557310.011230 7133454.703125 288.411469
557313.582031 7133454.834717 304.560089
557307.910156 7133455.455322 275.770813
557324.269531 7133668.221191 285.444458
557327.361816 7133665.062012 271.279694
557434.939941 7133596.503418 314.855255
557434.892578 7133592.267090 311.116333
557367.789063 7133666.217773 307.599030
557368.255859 7133664.130371 298.660339
557351.397949 7133675.534668 370.148651
557355.041504 7133669.063721 370.974701
557396.341309 7133686.444580 333.999817
557400.150879 7133688.033936 334.255249
557486.758789 7133651.640137 354.666443
557489.375977 7133647.395020 356.183136
557490.401367 7133652.185547 358.785126
557278.775391 7133744.562744 358.649750
557281.425293 7133739.105713 356.363983
557155.477539 7133435.679688 348.017303
557191.138184 7133620.863770 254.168900
557199.061035 7133625.255127 234.239426
557206.692871 7133629.609131 240.628647
557303.028320 7133477.228516 242.997040
557298.489258 7133475.928955 227.482758
557300.007813 7133474.583740 235.334045
557148.512207 7133445.961670 242.305054
557139.535645 7133445.224854 279.886475
557345.836426 7133667.865723 287.129425
557347.162109 7133663.072754 285.417297
557348.851074 7133664.991943 289.791626
557350.896484 7133736.903809 362.073212
557354.468750 7133739.004883 362.052002
557235.109863 7133510.616943 360.271454
557237.828613 7133503.482910 359.542297
557228.274414 7133505.946533 359.805115
557368.209961 7133620.367432 375.120148
557198.235840 7133595.388428 117.412964
557199.607910 7133585.252197 99.702995
557314.043945 7133638.902588 167.222015
557314.726074 7133637.562012 150.909653
557341.303711 7133481.779053 342.358398
557336.119141 7133495.203369 326.249847
557405.658691 7133700.996582 337.463165
557405.132324 7133696.984619 337.575775
557349.060547 7133552.672363 255.176651
557358.480469 7133554.975586 290.322449
557357.267578 7133556.732422 272.168427
557319.233398 7133623.474365 89.965210
557313.891602 7133635.627197 99.668755
557460.721680 7133710.085205 381.040649
557409.718750 7133571.883789 382.788086
557405.625488 7133562.044434 380.929993
557389.728516 7133649.795898 382.204773
557381.659180 7133654.981201 381.315887
557187.759766 7133492.479248 99.587402
557221.331543 7133497.548584 81.290321
557419.238281 7133560.208252 324.935181
557405.987305 7133562.060303 313.622620
557315.583008 7133637.020996 372.274231
557323.102051 7133641.143799 376.439697
557200.313965 7133532.542480 360.586395
557212.238281 7133531.003662 360.737091
557204.815430 7133526.521484 360.848877
557486.216797 7133616.376465 397.263885
557495.315918 7133611.768311 396.863037
557301.230957 7133546.248291 65.792763
557274.019043 7133535.972168 33.625187
557388.149902 7133617.852783 177.321411
557402.985352 7133611.881836 165.861282
557393.473633 7133615.902100 173.227417
557240.532715 7133685.642822 357.248138
557241.479980 7133680.999268 363.909363
557352.173828 7133540.279541 322.838226
557358.131836 7133544.686768 339.878571
557359.937500 7133548.974365 327.524841
557304.124023 7133721.628662 346.976471
557306.145020 7133719.139893 344.237122
557307.446289 7133722.253418 344.587982
557294.118652 7133697.764648 368.527130
557302.492188 7133699.583252 369.808899
557299.832520 7133689.846436 368.869049
557469.216309 7133716.081299 369.607605
557472.689453 7133718.204346 369.126282
557417.106934 7133704.872070 382.422455
557408.974121 7133702.918457 382.894897
557274.053223 7133446.246338 374.270538
557273.667969 7133438.295654 374.567505
557172.390625 7133551.900879 166.595078
557171.600586 7133545.329102 162.974609
557233.142090 7133437.897705 177.887650
557238.377930 7133435.094971 182.093079
557233.792480 7133441.086670 170.617859
557403.213379 7133670.955566 295.158508
557404.804199 7133667.630859 281.717529
557404.929199 7133669.385010 289.254730
557286.033203 7133701.871582 352.733368
557289.892090 7133699.127686 352.522522
557352.040527 7133604.220459 206.642090
557353.136230 7133609.827148 201.455200
557350.962402 7133601.242676 200.204865
557379.296875 7133684.806396 338.220093
557381.823730 7133687.591064 337.972717
557478.378906 7133729.989014 368.718872
557454.220215 7133761.867188 375.073639
557448.672363 7133761.770264 376.402344
557449.972656 7133761.070068 370.300873
557354.251465 7133743.224854 361.977386
557440.842285 7133724.910156 348.323517
557441.383301 7133728.424805 350.452789
557437.676270 7133727.569580 350.591431
557254.787109 7133510.427002 48.784279
557355.957520 7133718.877686 351.825165
557356.657227 7133716.685303 351.901703
557357.916016 7133719.208008 351.885925
557389.868164 7133665.781494 279.633545
557392.360840 7133667.706787 279.525085
557205.015625 7133568.500244 65.764214
557210.730957 7133566.552734 40.440201
557351.294922 7133678.194580 334.241943
557353.935547 7133677.277344 342.429565
557325.088867 7133677.432129 342.576263
557327.269043 7133675.242188 341.080811
557328.418945 7133676.852295 343.011597
557183.162109 7133426.784180 306.233124
557181.533691 7133423.002197 316.860138
557480.370117 7133605.170898 348.920349
557484.269531 7133603.904785 350.579712
557484.512695 7133608.041992 351.208832
557483.654785 7133611.382813 349.539032
557179.056641 7133605.455566 239.289673
557186.629883 7133604.958740 202.125595
557205.755859 7133521.109375 49.461514
557190.749512 7133521.648926 73.110672
557217.444824 7133519.027344 36.669350
557272.273926 7133614.141113 363.194183
557509.482910 7133612.941895 389.213837
557510.542480 7133615.554688 388.738586
557508.426270 7133612.406982 385.606659
557321.661133 7133674.014160 332.043243
557319.621094 7133675.937744 341.577881
557475.728027 7133755.640137 374.617615
557472.721191 7133758.818604 374.253021
557317.785156 7133665.722900 371.169678
557508.701172 7133612.699463 390.007843
557506.675781 7133612.075684 391.716003
557507.582031 7133614.618164 391.317902
557425.066406 7133654.853760 336.344452
557423.817383 7133650.120605 332.875214
557246.602051 7133710.615967 359.266296
557246.794434 7133714.375244 361.994781
557487.325195 7133601.443848 355.698700
557490.153320 7133743.561523 375.621582
557482.910645 7133583.145752 389.165558
557485.344238 7133586.071533 396.191559
557256.594727 7133464.074707 49.576580
557390.697754 7133707.782959 338.660492
557390.269043 7133703.529541 334.526337
557303.902832 7133662.287842 374.506470
557408.576660 7133762.367676 368.785583
557418.057617 7133761.938721 364.312195
557471.542969 7133570.585693 360.020325
557477.015137 7133577.885742 358.384705
557449.949219 7133637.478271 392.733368
557457.629395 7133641.152588 390.435181
557460.574219 7133634.422363 394.467163
557450.444824 7133717.000488 343.874298
557477.702148 7133711.774414 369.365723
557481.716797 7133715.641113 369.370850
557476.745605 7133716.291016 369.022888
557265.398926 7133626.198730 68.749756
557257.292969 7133622.414307 65.626511
557255.623535 7133612.923340 46.780037
557138.616699 7133498.254395 363.062683
557143.183594 7133505.208008 363.604675
557342.226074 7133565.846436 169.288620
557336.871094 7133560.029541 155.194000
557339.533203 7133558.576904 167.402069
557227.112793 7133493.537598 360.786682
557223.105469 7133496.388184 361.656189
557287.020996 7133457.776123 379.031372
557280.470215 7133464.672363 379.439117
557450.480957 7133609.150146 323.388428
557454.170898 7133606.907715 323.799561
557445.205078 7133649.855957 330.541534
557440.311523 7133652.016846 330.807983
557467.000977 7133674.123291 338.909058
557463.063965 7133677.190186 336.628082
557461.233398 7133673.307129 333.408112
557359.300293 7133707.748047 351.958099
557174.376953 7133590.786133 214.600159
557169.132813 7133586.365967 230.151993
557239.635742 7133438.829346 175.343918
557246.175781 7133439.888184 169.734711
557419.578125 7133607.375244 323.526489
557409.307617 7133605.973877 320.847687
557479.591797 7133722.230225 368.749420
557483.363281 7133719.999268 369.012085
557223.025391 7133444.157959 129.049423
557488.609375 7133707.974365 381.043304
557383.932129 7133621.538086 283.407135
557242.173828 7133686.979248 347.781525
557242.677734 7133691.363525 355.334808
557179.118164 7133500.615479 361.449188
557180.133789 7133511.333740 361.628143
557185.862793 7133505.221924 361.732819
557504.210938 7133647.342041 386.506958
557365.604980 7133703.187744 352.026855
557363.228027 7133707.233887 351.983307
557446.962891 7133606.327637 408.613281
557449.767578 7133609.514648 408.132996
557175.611328 7133411.295410 327.844086
557180.403809 7133409.292480 322.087555
557275.207520 7133636.433105 363.431702
557270.791016 7133643.217773 363.649323
557381.270996 7133577.744629 253.067520
557370.813477 7133576.548828 242.823822
557392.641602 7133684.839111 334.185486
557389.652344 7133686.717529 333.984772
557389.680176 7133683.516602 331.641724
557332.508301 7133660.374023 269.563507
557331.319824 7133663.983154 270.097595
557329.708984 7133758.955322 365.069061
557333.207031 7133759.328369 365.079285
557407.295410 7133687.694336 383.080139
557259.857910 7133451.516357 116.835327
557267.221680 7133493.089844 365.754333
557258.904297 7133499.392090 359.106232
557259.735840 7133638.086914 95.122726
557264.234375 7133652.689941 128.805954
557362.187500 7133638.993896 262.571045
557359.734863 7133635.104004 257.454102
557361.326172 7133632.443604 252.124298
557281.224121 7133639.961670 212.236389
557269.828613 7133638.952637 219.557770
557442.468262 7133737.653809 352.600891
557439.988770 7133739.719482 352.602997
557211.903320 7133627.961914 272.557404
557202.940430 7133625.316406 310.744598
557385.883789 7133688.392334 334.829834
557216.003906 7133430.739258 187.145599
557215.144531 7133435.273438 172.767624
557247.699219 7133609.745361 364.460419
557252.641602 7133609.482178 365.347290
557245.621094 7133604.193359 365.125671
557457.888184 7133659.090332 331.938446
557459.243652 7133655.588135 331.955688
557461.784668 7133658.507324 331.853729
557292.354980 7133738.910156 352.509796
557290.377441 7133733.461670 352.597870
557132.096680 7133488.494385 261.985260
557396.267090 7133666.973389 279.499939
557401.854980 7133665.729980 279.257050
557443.990234 7133694.946777 346.144440
557447.425293 7133691.502930 347.195190
557278.416992 7133750.398193 362.082825
557376.873535 7133596.955078 277.888397
557364.314453 7133596.136475 258.243225
557295.483887 7133420.803223 319.615295
557298.277832 7133424.362061 326.514465
557326.882813 7133606.303955 373.248047
557329.485352 7133600.186523 374.710480
557391.203613 7133606.869385 167.174728
557383.718262 7133610.693848 170.385391
557247.761719 7133656.595215 316.571625
557254.507813 7133651.156494 309.214478
557246.174316 7133664.040527 333.112030
557445.320801 7133634.971924 326.787964
557440.386719 7133636.022705 326.130981
557324.638672 7133649.915771 376.027527
557200.022949 7133548.994629 79.529953
557189.472656 7133543.703857 112.973755
557186.747070 7133542.661377 122.036835
557159.934570 7133498.399658 361.751160
557163.267090 7133491.217041 361.679047
557142.210938 7133528.481689 194.361191
557149.240234 7133532.888428 244.375809
557141.957520 7133525.665283 232.469208
557172.056641 7133556.789551 169.769516
557178.951660 7133570.096924 158.674362
557245.013672 7133673.607910 364.262787
557231.047852 7133601.790527 61.412701
557239.458984 7133610.308594 75.976997
557429.781250 7133725.978516 350.417664
557426.813965 7133728.967773 352.323181
557425.812500 7133725.065918 350.265381
557307.523438 7133694.734375 342.271606
557287.023926 7133422.091064 314.482483
557291.487305 7133419.823975 314.257507
557471.956055 7133726.193604 368.810730
557475.721191 7133724.196777 368.758881
557475.201172 7133728.016602 368.766815
557378.413574 7133730.189209 362.430634
557387.363770 7133730.175781 363.044342
557375.905762 7133734.108643 362.711578
557267.905762 7133643.963623 104.006233
557264.776855 7133646.717773 109.072449
557262.936523 7133631.499756 81.735451
557254.488281 7133454.936523 368.406128
557261.154785 7133457.116943 370.056549
557457.916016 7133665.707275 331.869873
557459.659180 7133669.122070 331.847534
557364.241211 7133562.946289 270.770233
557364.462891 7133566.817139 244.188614
557508.266113 7133617.284912 391.730042
557504.112793 7133620.470703 391.724915
557319.060059 7133690.730713 342.003845
557435.058105 7133550.242188 368.127777
557366.811035 7133751.352295 362.294037
557360.157227 7133740.399902 362.121216
557371.256348 7133742.158447 362.425415
557283.681641 7133644.381592 366.491699
557290.358398 7133636.845215 366.345520
557281.731445 7133636.927979 363.783844
557392.990723 7133579.903076 262.524963
557304.902344 7133647.090820 132.381577
557307.329102 7133646.735840 164.903900
557306.186523 7133646.748291 145.975388
557240.482910 7133402.214355 369.538879
557246.500000 7133406.825928 369.334991
557275.337891 7133418.139648 332.171967
557481.681152 7133587.368652 360.514191
557265.579590 7133740.973633 372.506653
557255.609375 7133643.281738 364.001801
557315.718750 7133635.674072 116.457047
557306.698730 7133642.052002 106.389893
557458.798340 7133729.948730 385.354797
557351.098145 7133688.397949 352.227509
557508.865723 7133622.229004 381.352051
557500.395508 7133626.610596 366.241882
557506.253418 7133620.500488 377.266663
557351.979004 7133610.541504 208.717880
557353.395508 7133595.190430 210.654907
557442.597656 7133703.023438 380.927917
557450.160156 7133696.873535 380.918213
557440.412109 7133694.601563 382.956024
