557448.536621 7133604.017090 325.295807
557451.473633 7133607.703857 326.691040
557448.486816 7133606.297119 325.821533
557447.111328 7133604.338623 324.850403
557447.362793 7133602.021240 324.231873
557447.126953 7133606.597900 325.434326
557445.709473 7133604.671875 324.414673
557444.219727 7133605.179199 324.027008
557444.645996 7133602.641602 323.404816
557444.396973 7133607.695068 324.580048
557442.972656 7133606.616699 323.986755
557444.485840 7133609.376465 324.413269
557443.176758 7133608.938232 324.146881
557443.410645 7133602.895264 323.009766
557443.821289 7133600.594238 322.476013
557445.048340 7133600.278809 322.841431
557444.143066 7133598.261475 321.889160
557446.335449 7133600.004639 323.231567
557445.944824 7133602.325928 323.801544
557448.836426 7133601.609619 324.773560
557460.793945 7133592.602051 336.566589
557457.971191 7133589.837402 333.491699
557459.850098 7133588.582764 335.953949
557461.834961 7133587.398926 338.533020
557459.118164 7133585.295898 335.496857
557464.707031 7133590.063477 341.687103
557463.947754 7133586.733643 341.191895
557465.438477 7133584.086670 343.359863
557460.778320 7133582.745361 337.859924
557468.670898 7133588.158691 346.750183
557469.563477 7133583.598877 346.069092
557471.553223 7133583.552734 347.634796
557468.800781 7133582.817871 344.447083
557471.267090 7133582.551270 346.017426
557467.315918 7133582.365723 342.689026
557465.127930 7133581.859131 340.252594
557469.722656 7133581.733643 343.735321
557467.556152 7133581.572266 341.889923
557469.701172 7133580.677002 340.867249
557473.884277 7133582.672607 348.208740
557472.956055 7133583.917725 349.224152
557475.221191 7133583.420166 350.324982
557474.044922 7133584.754395 351.153809
557475.626465 7133585.127441 352.949341
557476.483398 7133585.545410 354.143860
557475.704102 7133584.248047 351.884308
557477.389160 7133584.563477 353.693390
557477.220703 7133583.366699 351.868134
557480.194336 7133584.679199 356.098480
557484.254395 7133583.312744 356.733551
557480.226563 7133586.104248 357.971313
557481.944336 7133585.265625 358.329681
557481.050781 7133586.619629 359.344177
557481.237305 7133586.080322 358.806488
557482.263184 7133586.530518 360.346863
557482.085938 7133586.045166 359.496460
557483.970703 7133586.739746 362.092865
557484.323242 7133585.154785 360.185028
557486.017090 7133586.695557 363.826660
557486.879395 7133585.138672 362.401672
557487.730957 7133587.197510 365.992554
557488.125488 7133585.563232 364.174866
557488.070313 7133590.544434 367.755554
557489.447266 7133587.937988 368.350586
557486.692383 7133592.808105 365.622437
557489.638184 7133595.138184 367.607788
557491.243164 7133600.028320 366.106140
557493.943848 7133597.749756 371.121735
557492.217285 7133605.175293 363.525146
557495.707520 7133604.267822 368.581879
557491.076172 7133607.852783 360.178741
557494.361328 7133609.237061 363.394165
557490.671387 7133609.601563 358.486206
557493.028809 7133610.385986 361.038177
557488.922363 7133609.792236 356.171234
557492.476563 7133612.302246 359.241760
557485.873047 7133608.391113 353.267426
557488.124512 7133611.534912 354.161163
557483.772461 7133610.767578 349.080566
557479.419922 7133607.263672 345.982452
557479.419922 7133610.000000 344.000000
557479.419922 7133604.527588 347.964905
557477.473633 7133605.881592 345.526886
557477.544922 7133608.750000 343.500000
557475.724121 7133604.663086 345.097198
557475.669922 7133607.500000 343.000000
557473.794922 7133606.250000 342.500000
557473.925293 7133603.470459 344.613861
557473.625488 7133610.100098 340.807159
557476.294922 7133611.625000 341.625000
557471.969727 7133609.329590 340.226715
557471.311035 7133611.758789 338.858551
557469.935059 7133610.024902 338.829987
557468.661621 7133612.730469 337.013458
557473.169922 7133613.250000 339.250000
557477.358398 7133614.292236 344.316101
557478.772949 7133616.299316 346.996094
557480.042969 7133613.484375 346.701019
557481.772949 7133614.952881 349.401276
557480.995605 7133617.439941 350.029266
557483.431641 7133616.341553 351.979431
557484.329102 7133619.569824 354.822327
557480.043945 7133621.378174 350.669067
557481.890137 7133621.918701 352.578522
557484.039063 7133623.668945 354.902161
557484.349121 7133621.589844 355.025696
557482.559082 7133623.607178 351.264099
557481.489746 7133623.462158 348.717590
557485.577637 7133623.495605 352.519989
557488.379883 7133623.498779 354.948761
557483.822266 7133623.479492 350.803650
557485.172852 7133623.221436 349.392059
557489.421875 7133623.089844 351.721588
557481.233887 7133623.117188 344.985229
557488.737305 7133622.576416 346.060028
557477.833496 7133623.460205 345.649109
557477.053223 7133623.399170 344.229279
557474.194824 7133623.440430 342.729462
557485.208008 7133621.900635 336.381470
557495.470703 7133621.534180 341.508606
557496.158203 7133622.390137 350.572754
557490.998535 7133617.848145 337.236420
557486.371582 7133615.661621 333.676788
557494.921875 7133616.608398 338.614166
557491.408691 7133614.019531 335.419647
557499.623535 7133616.359131 340.920471
557505.733398 7133621.167725 346.635773
557495.780273 7133613.311279 337.312683
557500.470703 7133610.034180 338.008606
557491.458008 7133607.525635 332.006470
557486.966309 7133611.271484 331.663757
557482.445313 7133605.017090 326.004303
557481.805176 7133612.175781 329.463715
557475.801270 7133613.439941 327.019989
557477.293945 7133608.839111 325.365509
557472.153809 7133609.496094 323.061157
557473.432617 7133602.508545 320.002136
557468.311035 7133606.551025 319.547638
557466.577637 7133610.594238 320.780823
557464.909180 7133603.552490 316.082306
557463.630371 7133607.111572 317.356598
557475.650879 7133598.945068 320.290558
557493.096680 7133603.704102 331.881195
557502.214355 7133606.237305 337.952393
557509.483398 7133612.542725 344.010773
557504.230469 7133602.992920 338.212799
557511.214355 7133608.749756 343.948090
557512.924805 7133605.502197 344.028931
557522.246094 7133607.975098 350.201538
557519.866699 7133611.249268 349.736359
557526.406738 7133605.865479 357.335480
557524.408691 7133599.581299 358.713806
557529.383789 7133614.021973 356.109375
557532.364258 7133611.332275 361.960419
557527.508789 7133617.560059 356.015076
557518.496094 7133615.051270 350.012939
557536.521973 7133620.068604 362.017242
557526.258789 7133620.435059 356.890076
557537.497070 7133615.757568 366.654724
557537.351074 7133620.446777 366.293274
557534.467773 7133609.410156 366.122742
557538.876465 7133611.750000 370.728394
557529.375977 7133603.206543 363.220215
557534.005859 7133604.120361 369.003387
557525.109863 7133594.943115 363.010437
557529.905762 7133597.805664 367.722015
557520.944824 7133594.411865 357.507202
557527.086426 7133591.349609 371.809875
557520.147949 7133588.679199 370.381348
557534.199219 7133598.371094 373.366882
557536.396484 7133595.111572 382.209259
557539.247559 7133601.299805 378.288727
557529.310059 7133592.365479 380.230347
557531.109375 7133593.409424 387.317749
557524.742676 7133590.761475 378.867096
557526.408203 7133591.754639 385.696136
557521.894531 7133589.589355 375.456360
557519.836914 7133589.250977 380.115509
557521.383301 7133590.098389 385.695313
557517.457031 7133588.163574 375.670288
557513.330566 7133587.406250 385.804016
557516.386719 7133587.352539 369.033173
557513.788574 7133586.830811 373.863007
557512.756836 7133585.987549 366.249115
557508.486328 7133585.161621 375.654053
557507.873047 7133587.419678 382.944275
557508.497070 7133584.442139 363.702545
557510.904297 7133584.853027 358.853577
557503.641602 7133582.916992 365.504120
557506.083496 7133583.155273 356.851227
557502.291992 7133585.035400 372.153564
557502.469727 7133585.946045 375.444489
557498.625000 7133584.875488 369.775635
557499.016113 7133585.979004 373.618835
557497.498535 7133584.010010 366.216766
557494.104492 7133585.132324 368.106506
557497.480957 7133582.963135 362.568634
557494.140625 7133584.016846 364.558441
557498.797363 7133580.672363 355.354187
557493.858398 7133582.832275 360.328278
557504.174316 7133582.251953 351.649628
557498.658203 7133580.056641 346.033295
557492.932617 7133580.580322 352.080719
557492.719727 7133581.787598 356.157806
557488.882813 7133581.681396 353.896912
557484.866699 7133582.241943 353.767212
557489.004395 7133583.239502 359.121246
557490.464844 7133584.145996 362.984497
557490.705566 7133585.256836 365.984009
557490.645020 7133586.371094 367.544189
557492.062012 7133586.989014 369.580811
557490.593750 7133589.304688 370.188812
557493.441895 7133588.037598 372.065277
557491.042480 7133592.701660 370.429321
557492.634277 7133590.368652 372.107422
557494.066406 7133592.876465 373.239563
557495.952637 7133595.204102 374.793762
557496.971680 7133592.018311 376.101776
557497.218750 7133598.042725 374.980988
557498.893066 7133595.122559 377.607819
557499.041016 7133602.615967 373.992859
557499.539063 7133599.092773 377.107239
557499.345215 7133606.512207 371.516937
557502.476074 7133607.700195 374.605316
557498.479980 7133608.344727 369.147766
557501.167480 7133609.296143 371.982269
557496.007324 7133608.169189 366.152679
557498.216797 7133610.675293 367.444458
557496.417480 7133610.258545 365.391663
557496.829102 7133613.069824 364.322327
557501.181641 7133613.837158 369.402893
557500.358398 7133610.704102 370.141479
557498.172363 7133615.224121 367.011932
557499.283691 7133617.854492 369.733490
557495.920898 7133615.981445 365.058746
557493.583008 7133615.194824 362.110596
557491.806641 7133618.712158 362.277893
557490.971191 7133615.549561 359.539032
557488.459961 7133616.720947 357.551697
557489.113281 7133614.592041 357.001465
557486.233398 7133615.596191 354.524872
557484.517578 7133614.090576 351.817322
557487.140137 7133621.245850 357.806274
557490.138672 7133621.468750 360.848297
557488.189453 7133622.418701 358.970856
557491.443848 7133623.836182 362.377716
557490.151855 7133623.607666 357.671051
557492.965820 7133621.255371 363.677032
557495.282715 7133622.041992 366.082062
557495.766602 7133620.325439 366.414154
557498.848633 7133624.003418 369.853271
557497.839844 7133623.758545 365.707214
557497.334961 7133621.382568 368.087921
557499.104980 7133620.901855 369.827972
557497.818848 7133620.188232 368.468597
557502.143555 7133621.218994 372.916199
557503.950684 7133619.608887 374.599457
557506.760742 7133616.997070 377.189087
557505.227539 7133621.225342 376.037903
557506.253906 7133624.170654 377.328796
557506.356934 7133620.007080 377.071198
557507.943848 7133621.516113 378.879974
557508.428223 7133619.858398 379.209381
557510.888672 7133619.072510 381.661865
557514.238281 7133616.139404 384.644653
557510.150391 7133620.847412 381.096191
557512.262695 7133620.631592 383.135925
557511.466797 7133622.607666 382.470184
557513.658691 7133624.337891 384.804352
557515.790527 7133623.841553 384.908844
557513.481445 7133623.813721 379.498138
557516.104980 7133623.959717 382.652771
557512.130371 7133623.317627 373.317261
557517.322266 7133623.484863 379.247925
557505.154297 7133623.635254 370.625061
557506.535156 7133623.015381 365.600555
557501.439453 7133623.603516 367.129883
557499.033203 7133623.357910 362.619385
557503.564453 7133622.653809 359.489075
557510.143066 7133622.070557 359.331604
557498.199219 7133622.858887 356.931396
557504.545898 7133622.018555 354.049164
557494.227051 7133623.416748 359.132019
557492.595215 7133623.202148 355.537018
557515.996094 7133620.801270 351.762939
557509.849121 7133617.267822 346.703674
557505.062012 7133615.614502 343.345703
557513.226563 7133616.452881 348.023041
557523.121094 7133621.106201 360.879364
557516.798828 7133621.589844 360.233734
557530.792969 7133620.706299 363.452148
557528.402344 7133621.193115 366.298981
557533.540039 7133620.992920 368.548676
557538.180176 7133620.825195 370.569336
557535.332520 7133621.350342 373.354675
557539.909668 7133617.666016 371.904297
557539.009277 7133621.203613 374.845367
557540.422363 7133619.009033 375.793152
557536.478027 7133621.738525 377.948059
557533.145508 7133621.853271 376.400482
557539.838379 7133621.582031 379.121399
557537.108887 7133622.146484 382.369415
557541.227051 7133618.827393 379.091614
557540.667480 7133621.960449 383.397461
557541.463867 7133616.171387 375.038971
557542.693359 7133616.079346 379.419739
557542.335938 7133611.859863 376.051331
557538.623047 7133605.766357 374.254639
557544.277832 7133613.335449 381.020538
557543.472168 7133616.649658 384.036285
557543.466797 7133607.662598 379.829865
557545.888184 7133611.622070 384.217896
557543.602539 7133602.140625 383.855713
557546.939453 7133607.519775 385.248047
557545.966797 7133598.933105 391.495453
557538.912109 7133596.260986 390.954529
557548.408203 7133604.357910 389.033630
557551.126953 7133603.586670 394.032623
557548.783691 7133608.709229 390.096588
557550.322266 7133607.162109 393.281525
557547.177246 7133611.294922 388.409149
557547.972656 7133611.794434 392.836731
557549.238281 7133609.911621 394.011322
557546.511230 7133614.426025 392.190338
557545.631836 7133614.357910 388.167877
557547.316406 7133615.166992 397.210419
557545.929199 7133617.809814 396.882141
557548.703613 7133612.524414 397.538696
557543.762695 7133613.103271 396.841492
557550.090820 7133609.881592 397.866974
557545.235840 7133610.448975 397.182587
557546.700684 7133607.757324 397.522736
557543.012207 7133608.276367 396.996918
557551.478027 7133607.238770 398.195251
557547.921875 7133605.172363 397.824768
557552.865234 7133604.596191 398.523560
557554.252441 7133601.953369 398.851837
557547.950195 7133602.868164 397.971954
557544.433594 7133603.186768 397.473938
557549.743164 7133600.415527 398.489624
557544.655762 7133601.033936 397.764771
557545.233398 7133598.877930 398.127380
557540.984375 7133599.685059 397.481201
557540.723633 7133597.340088 397.765137
557536.739746 7133599.541260 396.975128
557536.213867 7133595.802246 397.402893
557540.209961 7133601.411621 397.156494
557535.923828 7133602.052979 396.530487
557540.050293 7133603.736572 396.857086
557543.750488 7133605.663086 397.233002
557536.314941 7133604.867432 396.285583
557540.039063 7133606.712402 396.677063
557532.445801 7133603.125732 395.957916
557532.961914 7133606.299805 395.752014
557532.674805 7133600.006348 396.398376
557529.198730 7133601.258057 395.800568
557534.492676 7133598.181885 396.873108
557532.169922 7133596.845459 396.762482
557531.704102 7133594.264404 397.040649
557534.906738 7133594.871826 390.135040
557529.079102 7133595.717041 396.514801
557529.392090 7133598.212646 396.232422
557527.194336 7133592.726563 396.678406
557526.266602 7133596.606201 396.060608
557522.684570 7133591.188965 396.316162
557523.018555 7133594.650391 395.983551
557518.174805 7133589.651123 395.953949
557519.428711 7133592.824463 395.776581
557516.849121 7133591.756592 394.705353
557519.399414 7133595.584717 395.408051
557522.743652 7133597.652588 395.522095
557517.062988 7133593.574951 394.685333
557516.157715 7133595.778320 393.774780
557514.687988 7133592.547119 392.777344
557515.626465 7133590.886719 393.774323
557513.523438 7133590.243896 391.514526
557510.576660 7133589.829102 388.582520
557511.589355 7133592.150635 389.791077
557508.698730 7133588.782227 386.351013
557508.523926 7133591.080322 386.901764
557505.744629 7133589.004883 383.997345
557505.064453 7133587.252686 380.959229
557504.043945 7133588.286621 381.792725
557503.173340 7133586.819336 378.499847
557503.169922 7133587.965332 380.567474
557500.203613 7133587.042236 376.810181
557501.104004 7133588.816650 379.666504
557498.236328 7133589.008789 377.229919
557503.358398 7133589.759521 382.047974
557502.037109 7133592.961182 380.755493
557499.499512 7133591.383301 378.443665
557505.764160 7133593.037842 384.251007
557504.227539 7133596.413818 382.514740
557507.342285 7133598.237061 385.310211
557501.656250 7133597.610840 379.996490
557504.634766 7133600.570313 382.269562
557495.276855 7133589.304443 374.493195
557497.687500 7133587.440918 375.072662
557496.095215 7133587.151855 373.314819
557495.495605 7133586.164307 371.432343
557502.139160 7133601.748047 378.485779
557503.004395 7133605.236328 377.041718
557505.790527 7133605.264648 380.523071
557505.470215 7133608.546387 377.896118
557508.250000 7133609.684326 380.765198
557504.904785 7133610.796143 375.862701
557507.377930 7133611.858887 378.380768
557503.250977 7133610.329834 374.031128
557504.186523 7133611.777100 374.387665
557502.702637 7133611.676758 372.567322
557505.533691 7133614.604492 374.483490
557503.187500 7133615.822266 372.699249
557509.885742 7133615.372070 379.564087
557509.671875 7133612.481934 380.940033
557511.953613 7133613.669434 383.149384
557510.596191 7133611.233154 382.839600
557514.562012 7133614.906250 385.761475
557512.829102 7133611.709229 385.402100
557516.707031 7133616.437012 386.035553
557515.160156 7133619.187256 385.301300
557514.885742 7133613.672852 386.878296
557518.535156 7133614.919922 388.025940
557515.209473 7133612.439697 387.995117
557513.544922 7133609.011230 387.881805
557519.048340 7133613.378174 389.514252
557522.071289 7133615.536133 389.628906
557515.533203 7133611.206543 389.111938
557519.387695 7133612.140625 390.652344
557515.856934 7133609.973389 390.228760
557522.583984 7133614.193848 390.935059
557522.820313 7133612.950684 392.026184
557526.066895 7133616.761719 391.031250
557524.476563 7133617.784424 389.335876
557526.206543 7133615.118164 392.377289
557529.506348 7133617.472656 392.482391
557529.676758 7133616.073242 393.659546
557529.288574 7133619.092773 391.225037
557531.806152 7133619.722412 392.189240
557527.121582 7133619.482910 389.920166
557528.934570 7133620.728516 390.599731
557530.864258 7133621.143799 391.418213
557527.898438 7133621.103760 390.203674
557526.435059 7133621.232666 389.625824
557528.773438 7133622.447266 390.527405
557524.949707 7133622.758301 389.096588
557524.221680 7133620.681641 388.742706
557527.273926 7133623.579346 388.796997
557530.937988 7133623.320068 388.649231
557524.406250 7133623.755859 387.691467
557527.547852 7133623.441406 386.564514
557521.924316 7133623.170166 388.003967
557521.523926 7133623.884521 386.721527
557522.343262 7133621.463135 388.089661
557520.441406 7133621.913330 387.380127
557522.190430 7133619.322510 387.871643
557520.490723 7133620.130859 387.259674
557523.708008 7133618.856445 388.478912
557525.306641 7133619.642822 389.123932
557521.569336 7133617.122314 388.146973
557520.178223 7133618.152832 387.040070
557519.103027 7133616.666016 387.029236
557518.490234 7133617.645264 386.420410
557517.432617 7133619.030762 386.096741
557519.054199 7133619.082031 386.662140
557516.637695 7133621.504883 386.037750
557514.110352 7133621.527832 384.733673
557518.796875 7133620.920654 386.703796
557519.010254 7133623.156738 386.816559
557519.374023 7133623.831055 384.111938
557522.402832 7133623.217773 380.716949
557519.500977 7133622.800781 374.522949
557523.799805 7133623.580078 385.144531
557527.179199 7133623.011475 382.650818
557525.606934 7133622.561523 377.176880
557530.386719 7133622.423340 379.581757
557522.982910 7133622.038086 369.955963
557528.772461 7133621.971191 374.100128
557515.354004 7133622.335449 366.367218
557520.189941 7133621.676025 364.017975
557524.165527 7133621.501221 365.683350
557527.138672 7133621.618164 369.354828
557531.313477 7133621.475586 371.364227
557534.052246 7133622.274170 381.138580
557531.010742 7133622.868896 384.320862
557534.350586 7133622.734619 385.553741
557534.881348 7133623.120605 389.607178
557537.620117 7133622.580078 386.711731
557532.639648 7133622.829346 392.006165
557535.521484 7133623.277100 392.188995
557532.879883 7133621.483887 392.193115
557534.688477 7133622.430664 392.913879
557533.793945 7133620.803955 392.630432
557532.972168 7133618.751709 393.562744
557535.633301 7133621.189697 393.442291
557536.573242 7133618.889893 395.563995
557537.065430 7133622.963867 393.750214
557537.853516 7133621.806641 394.214081
557538.279785 7133623.039795 391.060425
557539.733398 7133623.010986 393.929535
557541.496582 7133622.338623 387.673492
557542.325684 7133622.716797 391.949524
557542.135742 7133619.062988 383.381195
557542.965820 7133619.486328 387.779053
557544.250977 7133617.089111 388.199188
557543.731445 7133619.896973 391.985138
557544.723633 7133614.657227 385.001587
557545.064453 7133617.246582 392.086945
557544.541992 7133620.452637 396.553864
557543.154785 7133623.095215 396.225586
557539.864258 7133620.992676 395.894775
557541.172363 7133618.173584 396.221954
557542.377441 7133615.696533 396.516785
557538.102539 7133616.164063 395.915894
557539.370117 7133613.741211 396.215424
557534.896973 7133614.152588 395.591125
557540.699219 7133610.628662 396.559845
557536.161133 7133611.674316 395.894958
557536.852539 7133608.409424 396.157196
557532.686523 7133609.434326 395.547943
557529.057617 7133607.216309 395.169403
557528.854492 7133609.810791 395.008881
557529.135254 7133604.269775 395.402649
557525.526367 7133605.183350 394.839600
557525.734375 7133602.311279 395.239563
557526.145996 7133599.427490 395.660828
557522.501953 7133600.519287 395.142334
557518.586914 7133598.876465 394.758850
557519.355957 7133601.876709 394.619110
557515.035645 7133598.386230 392.640045
557515.601074 7133601.851318 392.787415
557513.214844 7133595.534424 391.058411
557511.850586 7133599.287598 389.526031
557509.727539 7133594.862793 387.767883
557509.260254 7133602.591553 386.597656
557512.467285 7133603.103516 389.816467
557506.838867 7133601.140625 384.517944
557507.114258 7133603.338379 383.626770
557509.927734 7133607.345703 384.296051
557511.875488 7133605.592285 387.942017
557514.747559 7133606.173584 391.000244
557518.283203 7133605.016602 393.769318
557516.504395 7133607.507080 392.462402
557516.828125 7133606.273926 393.579193
557516.180664 7133608.740234 391.345581
557519.898438 7133609.740234 392.755768
557519.686523 7133610.946533 391.720581
557520.119141 7133608.376465 393.909973
557523.409668 7133610.479248 394.240784
557522.372070 7133606.457764 394.332825
557522.174316 7133603.399170 394.686554
557525.716309 7133608.221436 394.676880
557526.700195 7133612.582031 394.571594
557523.010742 7133611.749023 393.062866
557526.296875 7133613.844482 393.372894
557529.991211 7133614.684570 394.902405
557531.623047 7133612.093506 395.259979
557533.282227 7133616.787109 395.233215
557513.663086 7133620.127930 384.399567
557513.243164 7133619.100830 383.916473
557466.088379 7133580.548584 338.470154
557466.834961 7133581.111084 340.547699
557463.683105 7133579.843750 335.005737
557463.303223 7133581.055664 337.709442
557465.028809 7133578.363770 330.578827
557470.550293 7133577.368896 329.854187
557460.275879 7133579.254150 331.423401
557459.877930 7133577.815918 326.230042
557460.682617 7133580.068359 334.111389
557461.489746 7133580.782715 335.872192
557458.747559 7133580.109375 332.815155
557459.563477 7133580.853760 334.487762
557456.851563 7133579.735107 330.705750
557456.118164 7133581.404053 332.359985
557456.865234 7133578.924316 328.376862
557451.457520 7133580.062744 326.860046
557454.831543 7133578.269043 325.176575
557455.216309 7133577.068604 321.451538
557451.583984 7133578.329590 323.680450
557446.796875 7133578.721436 321.360107
557453.186523 7133577.840088 323.060822
557451.005859 7133577.552734 320.953674
557450.654785 7133576.460205 316.777161
557447.540039 7133577.159180 318.045746
557455.826172 7133575.683105 316.518555
557447.086914 7133577.489746 312.237061
557446.166992 7133576.993164 315.056274
557447.555664 7133578.437500 308.323242
557442.707520 7133579.285156 308.145142
557439.483398 7133579.398926 306.588959
557439.121582 7133578.687988 310.020020
557438.601563 7133579.898926 304.233368
557436.318848 7133579.413574 305.529633
557439.345215 7133580.639160 301.478882
557436.614258 7133580.126465 302.623535
557433.688965 7133580.328613 301.308197
557431.261719 7133582.321289 299.921448
557429.532715 7133584.155762 297.772766
557432.629395 7133583.056152 302.258392
557431.092773 7133584.526123 300.253998
557434.474121 7133581.673096 304.826813
557433.976074 7133584.937256 304.650391
557436.411621 7133580.741699 307.577911
557435.802734 7133583.511230 307.276367
557437.767578 7133581.807129 309.928192
557439.547363 7133580.408936 312.454773
557437.550293 7133585.457031 310.107422
557435.411133 7133586.339355 307.059448
557439.107422 7133583.010742 312.185516
557439.879395 7133585.147461 313.729187
557438.676270 7133587.861572 312.390289
557440.919434 7133582.242676 314.910553
557441.900879 7133584.707275 316.626648
557442.698730 7133582.894043 317.372772
557441.003418 7133587.384766 315.806702
557443.029785 7133586.733398 318.451752
557439.145996 7133589.605225 315.361023
557435.054688 7133589.900879 312.051727
557435.718262 7133588.346924 308.817932
557431.875488 7133589.414063 307.470825
557429.659668 7133591.131836 310.103485
557433.358398 7133587.814453 305.223969
557429.309570 7133588.517090 302.636414
557432.115234 7133586.218262 302.066620
557429.412598 7133586.850830 299.078613
557425.728027 7133588.014893 297.847015
557426.721680 7133586.250488 294.957581
557427.980469 7133583.489258 295.110077
557426.264160 7133584.087891 292.814575
557422.599609 7133587.282471 293.065613
557417.875977 7133588.206787 291.039124
557421.352539 7133588.887939 296.190063
557413.851074 7133587.619141 285.468964
557412.138672 7133589.345459 288.380829
557405.257324 7133590.869629 284.866272
557410.416504 7133591.082764 291.293945
557399.488770 7133590.731445 277.840973
557397.338867 7133592.734375 281.083191
557391.199707 7133592.770020 274.098389
557385.088379 7133592.976563 267.704407
557389.068359 7133595.257568 278.794556
557395.166016 7133595.138428 285.529602
557382.405762 7133595.617188 272.229553
557383.050293 7133597.474854 278.013123
557377.048828 7133595.630127 265.997864
557376.812012 7133597.127197 269.952850
557378.427734 7133597.614258 273.123169
557374.388672 7133597.271729 267.652283
557374.275391 7133598.241455 269.813416
557372.507813 7133597.438721 265.730774
557372.416504 7133598.461426 268.065002
557371.022949 7133596.665283 261.923737
557369.470215 7133600.118896 265.846710
557367.336914 7133597.155029 259.184509
557367.890137 7133597.538086 260.884247
557364.501465 7133597.479004 256.657410
557365.248047 7133598.375000 259.716309
557363.373047 7133596.107178 251.551224
557369.061523 7133596.563721 254.363098
557362.360352 7133597.588135 254.646835
557361.772461 7133598.446045 255.984711
557361.743164 7133597.551025 253.776291
557361.056641 7133598.117920 254.521500
557359.512695 7133598.036377 252.524445
557355.543457 7133597.824219 247.416504
557355.193359 7133598.910889 249.443741
557361.653320 7133597.846191 250.489441
557367.762695 7133597.868164 253.562378
557358.443359 7133598.506592 246.394348
557361.720703 7133598.810547 248.531403
557355.860352 7133597.998047 246.536499
557356.177734 7133598.171631 245.656509
557355.513672 7133598.044678 219.835739
557356.495117 7133598.345215 244.776520
557356.812500 7133598.519043 243.896515
557359.060547 7133599.082031 244.366943
557360.937500 7133599.259521 245.511093
557361.279785 7133599.758789 243.571503
557359.586426 7133599.496094 241.974869
557362.801270 7133599.675781 244.803177
557363.866699 7133600.369385 243.267929
557363.356445 7133599.302979 247.120010
557365.094238 7133599.935059 245.520020
557366.070313 7133599.472412 249.566040
557366.621094 7133601.239746 242.946808
557365.057129 7133601.780273 241.813828
557368.195313 7133600.458496 246.228531
557368.745117 7133601.831787 243.730408
557368.587891 7133599.592773 251.097198
557366.749023 7133599.150391 251.159286
557370.916016 7133600.711426 247.637024
557370.911133 7133602.004883 244.940506
557371.149902 7133599.918945 251.928482
557373.222656 7133600.915039 248.948486
557369.360840 7133598.962402 252.817215
557371.609375 7133599.012207 253.873978
557367.447754 7133598.822021 252.042816
557364.855957 7133598.808838 250.619797
557373.972656 7133599.376953 254.490433
557373.398438 7133600.228027 252.686554
557375.216797 7133600.362549 253.462204
557375.623535 7133601.295410 249.563690
557375.055176 7133602.119629 247.584229
557377.071289 7133602.816162 248.145386
557373.087402 7133601.834229 246.543533
557374.716309 7133603.203125 246.256042
557373.054688 7133602.990234 245.370956
557371.909668 7133603.804443 244.008377
557374.052246 7133604.521973 244.720016
557376.047852 7133604.730225 245.637665
557376.275879 7133603.486084 246.932327
557375.143066 7133605.840088 245.114212
557373.841309 7133605.566650 244.749084
557377.002930 7133606.143555 245.671082
557378.187988 7133604.936768 246.669724
557375.707031 7133606.805664 246.040436
557377.783203 7133607.344727 246.657822
557373.451172 7133606.413818 245.643143
557375.029785 7133607.764160 247.547729
557372.512695 7133605.204346 244.314911
557371.290039 7133605.884033 245.034790
557371.594238 7133604.586670 243.930435
557370.959961 7133604.225098 243.680939
557371.023438 7133605.032715 243.934799
557369.203125 7133605.249756 244.276917
557370.127930 7133604.455566 243.501801
557368.933105 7133604.193115 243.131943
557369.812988 7133603.321045 243.220978
557367.000000 7133603.992432 242.751831
557368.155273 7133603.439209 242.695984
557365.167969 7133605.594238 245.188110
557364.604980 7133603.421631 242.162018
557360.541992 7133603.609863 242.594894
557365.666504 7133602.951172 241.854874
557366.826660 7133602.705322 242.241684
557364.969727 7133602.915527 241.755112
557364.597656 7133602.707275 241.788269
557364.998535 7133602.516602 241.705017
557363.961914 7133602.025391 241.932907
557363.488281 7133602.648682 241.861786
557361.574219 7133600.327637 240.376709
557361.856934 7133601.757568 241.393219
557358.849121 7133599.431641 234.848541
557359.315430 7133599.706787 227.500870
557356.660156 7133598.806641 217.183289
557360.231445 7133600.163086 214.543427
557360.247070 7133601.136475 232.489517
557358.071777 7133599.513184 202.700333
557358.888672 7133599.998779 188.710159
557356.507813 7133599.094482 190.470062
557356.122559 7133598.467285 208.987000
557357.323242 7133599.577148 176.411774
557357.545898 7133599.834473 162.876892
557356.355469 7133599.382324 163.756836
557356.026855 7133598.708984 180.366760
557355.454102 7133598.485352 164.674210
557356.061523 7133598.618164 188.167603
557355.483887 7133598.265137 192.254974
557356.058594 7133598.601318 190.246429
557356.157715 7133598.424316 214.998764
557356.297852 7133598.515625 213.912643
557355.878906 7133598.868408 159.062241
557355.945313 7133599.021973 153.595642
557355.736816 7133598.786377 153.142822
557355.424316 7133598.705811 137.093445
557355.886230 7133599.087646 145.840378
557356.080078 7133599.265381 149.211807
557356.202637 7133599.669922 137.043610
557355.636719 7133600.723877 145.186539
557356.066895 7133600.828125 155.920044
557355.739258 7133600.140625 137.032715
557355.565430 7133599.352539 136.248413
557355.275391 7133600.611572 137.021805
557355.216797 7133599.899414 137.109879
557354.812012 7133601.082520 137.010895
557354.870117 7133600.303711 137.047272
557354.348633 7133601.553223 137.000000
557354.568848 7133601.119385 136.730743
557354.740723 7133601.571289 162.750427
557356.474121 7133600.918945 164.511154
557356.652344 7133601.000244 167.032288
557357.007813 7133601.099854 175.920151
557355.132813 7133601.589355 188.500839
557357.353516 7133601.273682 185.019791
557357.420410 7133601.425049 188.249176
557357.265137 7133601.460938 190.904419
557357.097656 7133601.504150 197.390381
557358.067871 7133601.425049 204.912796
557355.524414 7133601.607422 214.251251
557358.107422 7133601.480713 211.320602
557358.143555 7133601.489746 214.202423
557358.344727 7133601.470947 218.491821
557359.313965 7133601.328857 223.129532
557358.209961 7133601.501953 227.333237
557355.916504 7133601.625488 240.001678
557359.460449 7133601.557861 236.386169
557357.312988 7133602.440918 241.871841
557360.398926 7133601.611084 239.522949
557360.546875 7133601.230225 237.963547
557360.954590 7133601.927002 241.257614
557360.945801 7133601.541016 240.374390
557360.828613 7133601.198242 238.336990
557360.714844 7133601.367432 239.155563
557360.352051 7133601.330566 236.261841
557355.499512 7133601.426514 242.525497
557358.646973 7133603.298340 242.786362
557357.291992 7133602.558105 243.731644
557360.618652 7133604.509277 244.817078
557357.820313 7133602.947754 245.472900
557359.561523 7133604.057861 248.876785
557356.432617 7133602.059814 245.062469
557356.313965 7133601.968994 244.133926
557355.878906 7133601.748779 246.157837
557356.561035 7133602.247070 249.836090
557355.145996 7133601.269775 245.026321
557353.977539 7133600.565674 246.011917
557353.825195 7133600.427002 244.097275
557352.081055 7133599.425049 247.098389
557352.120117 7133599.407715 246.096252
557358.594727 7133602.016846 254.117737
557361.041016 7133605.068848 252.573792
557359.538086 7133599.160889 254.906677
557352.513672 7133599.225098 247.138153
557352.946777 7133599.024902 247.177917
557353.168945 7133598.922363 246.640594
557352.765625 7133599.109619 246.057144
557353.379883 7133598.824707 247.217682
557353.797363 7133598.631836 246.440125
557353.812500 7133598.624512 247.257446
557354.245117 7133598.424316 247.297211
557354.273926 7133598.411377 246.765121
557354.677734 7133598.224365 247.336975
557355.110352 7133598.024414 247.376740
557354.670410 7133598.228271 246.510101
557354.432617 7133598.340332 243.672836
557355.123047 7133598.028564 233.616669
557353.991211 7133598.542725 245.569794
557353.872070 7133598.598877 244.384872
557354.165039 7133598.461914 246.605133
557353.720703 7133598.667236 246.555328
557353.224609 7133598.897461 245.747223
557353.064941 7133598.970947 246.410507
557352.751465 7133599.116455 244.882904
557353.271484 7133598.876221 245.161850
557352.159180 7133599.390137 245.094101
557352.697266 7133599.141846 244.765427
557352.945801 7133599.886963 244.487839
557352.569824 7133599.627930 244.337418
557352.198242 7133599.372803 244.091949
557353.012695 7133599.899414 243.944885
557352.565918 7133599.604248 243.885269
557353.531738 7133600.203125 243.138046
557352.864258 7133599.773682 243.289322
557354.419434 7133600.765869 242.911606
557353.869629 7133600.382324 242.171173
557354.514648 7133600.779541 241.643234
557354.835938 7133600.958984 241.000854
557353.935059 7133600.391357 241.346939
557354.347656 7133600.639893 240.976532
557353.493164 7133600.118896 241.751312
557353.489746 7133600.088623 241.071915
557353.214844 7133599.968018 242.479645
557352.935547 7133599.749023 241.630997
557352.716309 7133599.645996 242.569519
557353.180664 7133599.870361 240.778091
557352.782715 7133599.615234 240.843597
557353.608887 7133600.141846 240.631363
557353.529785 7133600.075439 240.479523
557353.905273 7133600.347656 240.889557
557354.264160 7133600.565674 240.636002
557354.512207 7133600.736816 240.753342
557353.812012 7133600.249268 238.006409
557354.348633 7133600.608887 237.024261
557353.764160 7133600.224121 236.352829
557354.573242 7133600.781738 234.465363
557355.720703 7133601.616455 227.126465
557353.852051 7133600.322754 231.913437
557352.394043 7133599.286133 239.081253
557354.020508 7133600.480469 227.345245
557352.638672 7133599.569580 226.321106
557354.388184 7133600.735352 226.403320
557354.021484 7133600.492188 226.239304
557354.073730 7133600.535889 225.266357
557354.147461 7133600.632813 220.296463
557355.524414 7133601.607422 214.251251
557354.161133 7133600.686279 215.552368
557354.172363 7133600.711914 213.588287
557352.882813 7133599.853027 213.560944
557352.685059 7133599.612305 225.202820
557352.882813 7133599.853027 213.560944
557352.680664 7133599.607422 225.179703
557352.559570 7133599.464600 231.852417
557352.751953 7133599.707520 218.640762
557352.678223 7133599.644531 216.621094
557352.615723 7133599.571045 219.866531
557352.367188 7133599.307617 226.323303
557352.339844 7133599.329346 213.565369
557353.318848 7133598.872314 219.916916
557353.483887 7133598.793945 223.183838
557353.481934 7133598.799316 216.414368
557353.554688 7133598.768799 211.948196
557353.735352 7133598.680664 218.299911
557354.702148 7133598.232910 219.816818
557353.625000 7133598.727539 224.382324
557353.896484 7133598.599609 227.732788
557353.515137 7133598.774902 229.283844
557353.544434 7133598.759277 232.606476
557353.986328 7133598.555908 230.864319
557353.654297 7133598.706055 236.068100
557353.506348 7133598.772461 238.394287
557352.354492 7133599.303467 240.083405
557353.067383 7133599.771973 240.331055
557353.678223 7133598.691162 240.516983
557352.315430 7133599.320801 241.085541
557353.016113 7133598.996826 241.610229
557352.276367 7133599.338135 242.087677
557352.237305 7133599.355469 243.089813
557352.760254 7133599.114014 242.437073
557353.363770 7133598.834473 243.607407
557353.312988 7133598.858887 242.998901
557353.805664 7133598.630859 242.621216
557353.468262 7133598.787598 241.813675
557353.058105 7133598.977295 242.104584
557353.260254 7133598.883301 242.687317
557352.952148 7133599.025635 242.670135
557353.354492 7133598.839844 242.791458
557352.942871 7133599.029785 242.096771
557352.434570 7133599.343994 234.091644
557352.479492 7133599.390381 233.109863
557352.564453 7133599.478271 230.426422
557352.589355 7133599.494629 230.774750
557355.513672 7133598.044678 219.835739
557354.981934 7133598.229980 211.768280
557355.528320 7133597.934570 233.626129
557355.499023 7133598.154785 206.045349
557354.281250 7133598.437256 206.016968
557354.926270 7133598.270752 208.235779
557354.766113 7133598.386963 197.986450
557353.860352 7133598.641602 192.217133
557355.483887 7133598.265137 192.254974
557354.708008 7133598.430176 194.118790
557354.688965 7133598.443115 193.001389
557354.555176 7133598.542725 184.197540
557355.468750 7133598.375244 178.464600
557353.439453 7133598.845947 178.417282
557354.491699 7133598.588135 180.210342
557353.073730 7133599.009766 186.233688
557353.046875 7133599.019287 190.291718
557352.777344 7133599.149414 182.548187
557352.285645 7133599.372559 188.049500
557352.258789 7133599.394287 175.291565
557352.736816 7133599.177002 169.983124
557352.231445 7133599.416016 162.533630
557353.018555 7133599.050293 164.617432
557354.238281 7133598.708008 172.354446
557354.339844 7133598.722168 167.496674
557354.381348 7133598.640625 176.730957
557354.447754 7133598.611328 178.539124
557354.809082 7133598.590088 170.506775
557355.454102 7133598.485352 164.674210
557354.247559 7133598.762207 165.077515
557354.208008 7133598.778564 164.104034
557354.138184 7133598.804199 162.975647
557353.915039 7133598.881836 159.639008
557352.597656 7133599.254883 150.817596
557352.513672 7133599.289551 156.978119
557354.276367 7133598.829102 155.564468
557354.070801 7133598.903809 151.543198
557355.439453 7133598.595703 150.883820
557354.261230 7133598.866211 150.936676
557353.771484 7133598.979980 150.789612
557353.980957 7133598.938232 149.098404
557353.890625 7133598.996094 143.069382
557353.845703 7133599.080078 137.218063
557352.177246 7133599.459229 137.017746
557354.322266 7133599.056396 136.232437
557353.516602 7133599.289551 136.376312
557354.850098 7133599.004883 136.363129
557354.622559 7133599.174316 136.550339
557355.193359 7133599.143799 136.499451
557355.407715 7133599.075439 135.926468
557355.388184 7133599.557617 136.949310
557355.151855 7133599.446045 137.056900
557354.824707 7133599.605469 136.876099
557354.966797 7133599.271729 137.032700
557354.427734 7133600.241699 136.966827
557354.547852 7133600.832031 136.917435
557354.261230 7133599.564941 137.198486
557353.948730 7133600.076660 136.921127
557354.046875 7133599.267334 136.650482
557353.681152 7133599.583740 136.572891
557352.990723 7133599.579834 136.605026
557353.437500 7133600.072510 137.563217
557352.639648 7133599.512939 135.921906
557352.662598 7133599.531006 136.075882
557352.734375 7133599.600830 136.408585
557352.957520 7133599.839600 141.542999
557353.189453 7133600.138672 142.855667
557353.262695 7133600.506348 137.008881
557353.028809 7133600.025146 185.709564
557352.712402 7133599.830811 142.792725
557353.018555 7133600.222900 149.769043
557353.518555 7133600.405762 137.241714
557353.938477 7133600.650146 138.791809
557353.740234 7133600.354492 136.559799
557354.269043 7133600.963379 136.801620
557354.104492 7133601.269775 149.760162
557354.544922 7133601.562256 149.875214
557353.859863 7133600.986328 162.520309
557353.859863 7133600.986328 162.520309
557354.740723 7133601.571289 162.750427
557354.296875 7133601.256592 164.752563
557354.290527 7133601.221191 168.055008
557353.615234 7133600.703125 175.280457
557353.514160 7133600.604248 175.613815
557354.936523 7133601.580322 175.625641
557354.079590 7133600.961426 180.688751
557354.369141 7133601.131348 183.083115
557353.371094 7133600.419678 188.040619
557353.371094 7133600.419678 188.040619
557355.132813 7133601.589355 188.500839
557354.193359 7133600.946533 190.287354
557354.125977 7133600.870850 193.519897
557353.126953 7133600.136230 200.800781
557353.281250 7133600.312256 193.147018
557354.306641 7133600.954590 197.406540
557355.328613 7133601.598389 201.376038
557354.669434 7133601.217041 195.267197
557354.215332 7133600.823730 204.834549
557354.570801 7133601.031494 207.902237
557353.840820 7133600.546875 207.712982
557354.188965 7133600.745850 211.192368
557352.892578 7133599.883057 207.971542
557352.788574 7133599.794189 204.969238
557352.757813 7133599.743652 210.538467
557352.679199 7133599.677734 207.835678
557352.312500 7133599.351074 200.807434
557353.148926 7133598.960449 206.590393
557353.244629 7133598.917969 203.477356
557353.289063 7133598.898438 202.853470
557353.328125 7133598.882324 199.880875
557352.978516 7133599.048096 194.414093
557352.842285 7133599.879395 196.099915
557352.828125 7133599.853271 199.476212
557353.004883 7133600.050537 192.283539
557353.371094 7133600.419678 188.040619
557353.202148 7133600.235107 193.733475
557353.082031 7133600.106201 197.283173
557353.371094 7133600.419678 188.040619
557353.371094 7133600.419678 188.040619
557353.333008 7133600.416992 178.939209
557353.099609 7133600.177979 182.718033
557353.453613 7133600.521240 182.139511
557352.530273 7133599.656006 175.289337
557353.257324 7133600.285156 194.227539
557352.801758 7133599.825439 200.115204
557353.330566 7133600.455811 167.828262
557353.036133 7133600.140137 176.284607
557353.037598 7133600.141113 176.455612
557352.941406 7133600.038086 179.375702
557352.774414 7133599.939453 162.529190
557352.555664 7133599.753906 155.789688
557352.204102 7133599.437500 149.775696
557352.415039 7133599.619629 138.309082
557352.652344 7133599.837158 154.549194
557353.487793 7133600.655518 154.999237
557353.567383 7133600.718018 158.380936
557353.729492 7133600.876221 158.526932
557353.797363 7133600.948486 156.206528
557353.412598 7133600.548096 164.081558
557353.790039 7133600.859619 165.124298
557353.876465 7133601.007080 160.177307
557353.710938 7133600.284424 226.235107
557362.678223 7133600.319580 258.634308
557365.935547 7133599.531494 262.095978
557365.783691 7133598.082764 259.886841
557366.529785 7133603.295166 263.126556
557367.889648 7133598.257813 262.476776
557372.527832 7133603.504639 269.545288
557373.006836 7133600.286377 269.905365
557375.859863 7133599.350342 272.740845
557378.203613 7133598.908447 275.341644
557380.153809 7133597.647705 275.285004
557380.010254 7133599.063721 277.271332
557382.103516 7133600.567383 279.812103
557384.237305 7133598.843750 281.851807
557386.138672 7133597.309814 281.321747
557386.469727 7133598.701172 284.203156
557389.124512 7133597.094727 283.964783
557391.728516 7133597.798828 288.270538
557396.050293 7133596.761230 290.881531
557388.651367 7133600.030273 286.780731
557394.295898 7133599.744141 292.843872
557397.110352 7133597.864502 294.791077
557400.001465 7133596.436035 294.766602
557400.770508 7133597.802246 298.860077
557401.299316 7133601.826904 300.766663
557402.915039 7133599.131836 302.436798
557404.650391 7133601.646240 303.557678
557405.910156 7133604.324707 303.683014
557405.650879 7133598.159668 304.430115
557404.295898 7133597.184082 301.854095
557407.483398 7133599.507568 305.266907
557409.242676 7133596.901123 305.557159
557407.055664 7133602.228271 304.665894
557408.998535 7133601.008301 305.786285
557407.972168 7133604.365479 304.752258
557405.868164 7133606.290283 303.297485
557406.743652 7133607.830811 303.453705
557404.585938 7133608.134033 302.305695
557404.479980 7133609.862793 301.918610
557405.615234 7133611.121094 302.282318
557408.607910 7133608.908447 304.223724
557407.966309 7133612.163574 303.402496
557409.600586 7133605.876221 305.306641
557410.777344 7133607.229736 305.650177
557410.482910 7133602.795654 306.286743
557411.899414 7133604.803711 306.691467
557412.623535 7133601.827881 307.304901
557414.464355 7133604.284912 308.002777
557410.989746 7133599.851318 306.683807
557413.160645 7133598.707764 307.459686
557414.623535 7133600.984619 308.065979
557411.161133 7133597.677979 306.647156
557409.532227 7133598.650391 306.075012
557413.357422 7133595.861816 306.689117
557415.508789 7133597.233154 308.291840
557414.891113 7133599.065186 308.124451
557417.361328 7133594.983887 308.138977
557417.704590 7133596.923828 309.165039
557415.958008 7133594.012695 304.734619
557420.440918 7133593.254883 307.004547
557410.936035 7133595.288086 303.277405
557412.665039 7133593.460205 300.030457
557407.196289 7133596.502441 303.099670
557405.744629 7133595.446777 298.525421
557408.215332 7133593.036865 294.368042
557414.797852 7133591.569824 296.970581
557401.314453 7133594.835693 291.715515
557403.104492 7133592.850830 287.993591
557416.484375 7133589.852783 294.076172
557420.035156 7133590.523193 299.265076
557424.463867 7133589.623535 301.076569
557422.760254 7133591.343506 304.058838
557427.242676 7133590.391846 305.759979
557424.883301 7133592.205811 308.376678
557426.529785 7133593.346436 312.116394
557422.319824 7133594.235352 310.425812
557424.192871 7133595.876709 311.667755
557424.291504 7133598.512451 311.777771
557422.448730 7133597.318848 311.040161
557422.716309 7133599.829102 311.227844
557420.871582 7133599.251709 310.466003
557421.449707 7133602.309570 311.162903
557420.741211 7133596.747803 310.388824
557419.039063 7133598.121094 309.762665
557419.595703 7133595.577393 309.793457
557418.767578 7133601.054688 309.694916
557416.685547 7133599.366943 308.834747
557416.468262 7133602.182373 308.827118
557417.834473 7133604.632568 309.833435
557415.187012 7133607.744141 308.203247
557418.284668 7133608.267822 310.082947
557412.626465 7133607.348877 306.685852
557412.899902 7133610.425049 306.570374
557410.541504 7133609.773438 305.188599
557410.570313 7133613.034180 304.919647
557407.815430 7133615.576172 303.017975
557413.463379 7133613.670898 306.653687
557415.741211 7133611.034912 308.276581
557411.165527 7133616.646240 304.984192
557414.154785 7133616.244385 306.865906
557407.933105 7133618.838623 302.830872
557410.743652 7133620.013428 304.136505
557404.996582 7133618.061279 301.087219
557405.666992 7133621.206787 301.057800
557404.868652 7133614.501465 301.326355
557403.958008 7133612.846191 301.120850
557408.294922 7133621.052979 302.522125
557414.270020 7133620.590088 305.727142
557416.919922 7133624.250000 305.625000
557413.340332 7133618.386963 306.047089
557416.026367 7133617.556885 307.713287
557416.310547 7133614.319092 308.349121
557419.379883 7133615.388184 310.100800
557418.893066 7133611.590820 310.175720
557418.421387 7133619.247070 308.337158
557421.492676 7133617.431396 310.581421
557422.551270 7133614.955811 312.003265
557422.227539 7133620.284668 309.838501
557424.419922 7133624.000000 309.500000
557426.923340 7133620.348877 312.176544
557421.585449 7133624.094482 306.172699
557419.253906 7133624.172363 303.608154
557423.901855 7133624.017090 306.891968
557423.209473 7133624.039795 304.825012
557427.422363 7133623.900146 308.769287
557428.639648 7133623.859131 308.592651
557432.544434 7133623.729248 311.538300
557434.556641 7133623.661865 312.144104
557422.065430 7133624.078125 301.701752
